# .PCD v0.7 - Point Cloud Data file format
VERSION 0.7
FIELDS x y z
SIZE 4 4 4
TYPE F F F
COUNT 1 1 1
WIDTH 1521
HEIGHT 1
VIEWPOINT 0 0 0 1 0 0 0
POINTS 1521
DATA ascii
0.1338343 0.1477886 -0.66600001
0.1351029 0.1477886 -0.66600001
0.13616671 0.14756671 -0.66500002
0.13660669 0.146679 -0.66100001
0.1376572 0.14645711 -0.66000003
0.1384933 0.1460133 -0.65800011
0.13953429 0.1457914 -0.65700001
0.1405714 0.1455695 -0.65600002
0.141821 0.1455695 -0.65600002
0.1428524 0.1453476 -0.65499997
0.1441 0.1453476 -0.65499997
0.1453476 0.1453476 -0.65499997
0.14592379 0.1446819 -0.65200001
0.14693999 0.14445999 -0.65100002
0.14817999 0.14445999 -0.65100002
0.14941999 0.14445999 -0.65100002
0.1499657 0.1437943 -0.648
0.1512 0.1437943 -0.648
0.152199 0.1435724 -0.64700001
0.1534314 0.1435724 -0.64700001
0.1544248 0.1433505 -0.64600003
0.1554143 0.1431286 -0.64499998
0.1566429 0.1431286 -0.64499998
0.16376001 0.1429067 -0.64400011
0.1649867 0.1429067 -0.64400011
0.1662133 0.1429067 -0.64400011
0.16744 0.1429067 -0.64400011
0.1230638 0.15202001 -0.69099998
0.12366 0.15114 -0.68699998
0.1244229 0.15048 -0.68400002
0.1255419 0.15026 -0.68300003
0.1266571 0.15004 -0.68199998
0.127581 0.1496 -0.68000001
0.1286867 0.14938 -0.67900002
0.12940571 0.14872 -0.67600012
0.12992001 0.14783999 -0.67200011
0.1310048 0.14762001 -0.671
0.1320857 0.14740001 -0.67000002
0.1331629 0.14718001 -0.66900003
0.1338343 0.14652 -0.66600001
0.1351029 0.14652 -0.66600001
0.13616671 0.1463 -0.66500002
0.13660669 0.14542 -0.66100001
0.1376572 0.1452 -0.66000003
0.1384933 0.14476 -0.65800011
0.13953429 0.14454 -0.65700001
0.14078569 0.14454 -0.65700001
0.141821 0.14432 -0.65600002
0.1430705 0.14432 -0.65600002
0.1441 0.1441 -0.65499997
0.1453476 0.1441 -0.65499997
0.14592379 0.14343999 -0.65200001
0.14693999 0.14322001 -0.65100002
0.14817999 0.14322001 -0.65100002
0.14941999 0.14322001 -0.65100002
0.1499657 0.14256001 -0.648
0.1512 0.14256001 -0.648
0.1524343 0.14256001 -0.648
0.1534314 0.14234 -0.64700001
0.1544248 0.14212 -0.64600003
0.15565521 0.14212 -0.64600003
0.1566429 0.1419 -0.64499998
0.1578714 0.1419 -0.64499998
0.1603286 0.1419 -0.64499998
0.1662133 0.14168 -0.64400011
0.16744 0.14168 -0.64400011
0.12366 0.1498314 -0.68699998
0.1244229 0.1491771 -0.68400002
0.1255419 0.1489591 -0.68300003
0.1266571 0.14874101 -0.68199998
0.127581 0.14830481 -0.68000001
0.1284972 0.1478686 -0.67799997
0.1292143 0.14721429 -0.67500001
0.12992001 0.14656 -0.67200011
0.1310048 0.1463419 -0.671
0.1320857 0.1461238 -0.67000002
0.1331629 0.1459057 -0.66900003
0.1340352 0.1454695 -0.66700011
0.1351029 0.14525139 -0.66600001
0.13616671 0.1450333 -0.66500002
0.13702001 0.1445972 -0.66299999
0.13786571 0.144161 -0.66100001
0.1389143 0.1439428 -0.66000003
0.13953429 0.1432886 -0.65700001
0.14078569 0.1432886 -0.65700001
0.141821 0.1430705 -0.65600002
0.1430705 0.1430705 -0.65600002
0.1441 0.1428524 -0.65499997
0.1453476 0.1428524 -0.65499997
0.14592379 0.1421981 -0.65200001
0.14693999 0.14198001 -0.65100002
0.14817999 0.14198001 -0.65100002
0.14941999 0.14198001 -0.65100002
0.1499657 0.1413257 -0.648
0.1512 0.1413257 -0.648
0.1524343 0.1413257 -0.648
0.1536686 0.1413257 -0.648
0.1546638 0.1411076 -0.64700001
0.15565521 0.1408895 -0.64600003
0.1568857 0.1408895 -0.64600003
0.1578714 0.1406714 -0.64499998
0.1591 0.1406714 -0.64499998
0.1603286 0.1406714 -0.64499998
0.1615572 0.1406714 -0.64499998
0.16278569 0.1406714 -0.64499998
0.1652429 0.1406714 -0.64499998
0.1662133 0.14045329 -0.64400011
0.12366 0.1485229 -0.68699998
0.1244229 0.1478743 -0.68400002
0.1257257 0.1478743 -0.68400002
0.1268429 0.14765809 -0.68300003
0.1279562 0.14744189 -0.68199998
0.1284972 0.1465771 -0.67799997
0.1292143 0.14592861 -0.67500001
0.12992001 0.14528 -0.67200011
0.1310048 0.1450638 -0.671
0.1320857 0.1448476 -0.67000002
0.1331629 0.1446314 -0.66900003
0.1340352 0.1441991 -0.66700011
0.1351029 0.1439829 -0.66600001
0.1363714 0.1439829 -0.66600001
0.13743331 0.1437667 -0.66500002
0.13786571 0.1429019 -0.66100001
0.1389143 0.1426857 -0.66000003
0.1397467 0.14225329 -0.65800011
0.14078569 0.1420372 -0.65700001
0.141821 0.141821 -0.65600002
0.1430705 0.141821 -0.65600002
0.14432 0.141821 -0.65600002
0.1453476 0.1416048 -0.65499997
0.14592379 0.14095619 -0.65200001
0.1471657 0.14095619 -0.65200001
0.14817999 0.14074001 -0.65100002
0.14941999 0.14074001 -0.65100002
0.1499657 0.1400914 -0.648
0.1512 0.1400914 -0.648
0.1524343 0.1400914 -0.648
0.1536686 0.1400914 -0.648
0.1546638 0.1398752 -0.64700001
0.15565521 0.13965911 -0.64600003
0.1568857 0.13965911 -0.64600003
0.15811621 0.13965911 -0.64600003
0.1593467 0.13965911 -0.64600003
0.1603286 0.13944291 -0.64499998
0.1615572 0.13944291 -0.64499998
0.16278569 0.13944291 -0.64499998
0.16401429 0.13944291 -0.64499998
0.1652429 0.13944291 -0.64499998
0.16647141 0.13944291 -0.64499998
0.12366 0.14721429 -0.68699998
0.1244229 0.1465714 -0.68400002
0.1257257 0.1465714 -0.68400002
0.1270286 0.1465714 -0.68400002
0.1279562 0.1461429 -0.68199998
0.1284972 0.1452857 -0.67799997
0.1292143 0.1446429 -0.67500001
0.12972669 0.1437857 -0.671
0.1310048 0.1437857 -0.671
0.1320857 0.14357141 -0.67000002
0.13336191 0.14357141 -0.67000002
0.1344372 0.1433571 -0.66900003
0.1353057 0.1429286 -0.66700011
0.1363714 0.14271431 -0.66600001
0.13743331 0.1425 -0.66500002
0.13786571 0.1416429 -0.66100001
0.1391248 0.1416429 -0.66100001
0.14017139 0.1414286 -0.66000003
0.14078569 0.14078569 -0.65700001
0.1420372 0.14078569 -0.65700001
0.1430705 0.1405714 -0.65600002
0.14432 0.1405714 -0.65600002
0.1453476 0.14035711 -0.65499997
0.14614759 0.13992859 -0.65300012
0.1471657 0.1397143 -0.65200001
0.14817999 0.13950001 -0.65100002
0.14941999 0.13950001 -0.65100002
0.15042859 0.1392857 -0.64999998
0.1512 0.1388571 -0.648
0.1524343 0.1388571 -0.648
0.1536686 0.1388571 -0.648
0.1549028 0.1388571 -0.648
0.1558962 0.1386428 -0.64700001
0.1571286 0.1386428 -0.64700001
0.158361 0.1386428 -0.64700001
0.1593467 0.1384286 -0.64600003
0.1605771 0.1384286 -0.64600003
0.1618076 0.1384286 -0.64600003
0.16278569 0.13821431 -0.64499998
0.16401429 0.13821431 -0.64499998
0.1652429 0.13821431 -0.64499998
0.16647141 0.13821431 -0.64499998
0.16769999 0.13821431 -0.64499998
0.16892859 0.13821431 -0.64499998
0.12348 0.1456933 -0.68599999
0.1244229 0.1452686 -0.68400002
0.1257257 0.1452686 -0.68400002
0.1270286 0.1452686 -0.68400002
0.1279562 0.1448438 -0.68199998
0.1286867 0.1442067 -0.67900002
0.12940571 0.1435695 -0.67600012
0.12992001 0.14272 -0.67200011
0.1310048 0.1425076 -0.671
0.1320857 0.1422952 -0.67000002
0.13336191 0.1422952 -0.67000002
0.1344372 0.1420829 -0.66900003
0.1353057 0.1416581 -0.66700011
0.1363714 0.1414457 -0.66600001
0.13743331 0.1412333 -0.66500002
0.1382829 0.1408086 -0.66299999
0.1393353 0.1405962 -0.66200012
0.14038379 0.14038379 -0.66100001
0.141 0.1397467 -0.65800011
0.1420372 0.13953429 -0.65700001
0.1430705 0.13932189 -0.65600002
0.14432 0.13932189 -0.65600002
0.1453476 0.13910951 -0.65499997
0.14614759 0.13868479 -0.65300012
0.1471657 0.13847239 -0.65200001
0.14840759 0.13847239 -0.65200001
0.14941999 0.13826001 -0.65100002
0.15042859 0.13804761 -0.64999998
0.1516667 0.13804761 -0.64999998
0.1524343 0.1376228 -0.648
0.1536686 0.1376228 -0.648
0.1549028 0.1376228 -0.648
0.1558962 0.13741051 -0.64700001
0.1571286 0.13741051 -0.64700001
0.158361 0.13741051 -0.64700001
0.1595933 0.13741051 -0.64700001
0.1608257 0.13741051 -0.64700001
0.1618076 0.13719811 -0.64600003
0.1630381 0.13719811 -0.64600003
0.1642686 0.13719811 -0.64600003
0.165499 0.13719811 -0.64600003
0.16672949 0.13719811 -0.64600003
0.16796 0.13719811 -0.64600003
0.16892859 0.1369857 -0.64499998
0.1701571 0.1369857 -0.64499998
0.17138571 0.1369857 -0.64499998
0.1750714 0.1369857 -0.64499998
0.1763 0.1369857 -0.64499998
0.12366 0.1445972 -0.68699998
0.1247867 0.14438669 -0.68599999
0.1257257 0.14396571 -0.68400002
0.1270286 0.14396571 -0.68400002
0.1279562 0.14354479 -0.68199998
0.1284972 0.14270291 -0.67799997
0.1292143 0.1420714 -0.67500001
0.12992001 0.14144 -0.67200011
0.1310048 0.1412295 -0.671
0.1320857 0.141019 -0.67000002
0.13336191 0.141019 -0.67000002
0.1344372 0.1408086 -0.66900003
0.1353057 0.14038759 -0.66700011
0.1363714 0.1401771 -0.66600001
0.13764 0.1401771 -0.66600001
0.1382829 0.13954569 -0.66299999
0.13954569 0.13954569 -0.66299999
0.14038379 0.1391248 -0.66100001
0.1414286 0.1389143 -0.66000003
0.14225329 0.1384933 -0.65800011
0.1432886 0.1382829 -0.65700001
0.14432 0.1380724 -0.65600002
0.1455695 0.1380724 -0.65600002
0.14614759 0.13744099 -0.65300012
0.14739139 0.13744099 -0.65300012
0.14840759 0.1372305 -0.65200001
0.1496495 0.1372305 -0.65200001
0.15042859 0.1368095 -0.64999998
0.1516667 0.1368095 -0.64999998
0.15290479 0.1368095 -0.64999998
0.1536686 0.1363886 -0.648
0.1549028 0.1363886 -0.648
0.15613709 0.1363886 -0.648
0.1573714 0.1363886 -0.648
0.15860569 0.1363886 -0.648
0.15984 0.1363886 -0.648
0.1608257 0.13617811 -0.64700001
0.1620581 0.13617811 -0.64700001
0.1632905 0.13617811 -0.64700001
0.1642686 0.1359676 -0.64600003
0.165499 0.1359676 -0.64600003
0.16672949 0.1359676 -0.64600003
0.16796 0.1359676 -0.64600003
0.16892859 0.1357571 -0.64499998
0.1701571 0.1357571 -0.64499998
0.17138571 0.1357571 -0.64499998
0.1728819 0.1359676 -0.64600003
0.17411239 0.1359676 -0.64600003
0.1750714 0.1357571 -0.64499998
0.1763 0.1357571 -0.64499998
0.1778038 0.1359676 -0.64600003
0.1787571 0.1357571 -0.64499998
0.12366 0.1432886 -0.68699998
0.1247867 0.14308 -0.68599999
0.1260933 0.14308 -0.68599999
0.1270286 0.1426629 -0.68400002
0.1279562 0.14224569 -0.68199998
0.1284972 0.14141139 -0.67799997
0.1292143 0.14078569 -0.67500001
0.12992001 0.14015999 -0.67200011
0.1310048 0.13995139 -0.671
0.1320857 0.1397429 -0.67000002
0.13336191 0.1397429 -0.67000002
0.1344372 0.13953429 -0.66900003
0.1353057 0.1391172 -0.66700011
0.1363714 0.13890859 -0.66600001
0.13743331 0.13869999 -0.66500002
0.1382829 0.1382829 -0.66299999
0.1393353 0.13807429 -0.66200012
0.14038379 0.13786571 -0.66100001
0.1414286 0.1376572 -0.66000003
0.1426857 0.1376572 -0.66000003
0.14350671 0.13723999 -0.65800011
0.14454 0.13703141 -0.65700001
0.1455695 0.13682289 -0.65600002
0.14659519 0.13661429 -0.65499997
0.14739139 0.13619719 -0.65300012
0.14840759 0.13598859 -0.65200001
0.1496495 0.13598859 -0.65200001
0.15042859 0.13557141 -0.64999998
0.1516667 0.13557141 -0.64999998
0.15290479 0.13557141 -0.64999998
0.1541429 0.13557141 -0.64999998
0.1549028 0.13515431 -0.648
0.15613709 0.13515431 -0.648
0.1573714 0.13515431 -0.648
0.15860569 0.13515431 -0.648
0.15984 0.13515431 -0.648
0.1610743 0.13515431 -0.648
0.1620581 0.13494571 -0.64700001
0.1632905 0.13494571 -0.64700001
0.1645229 0.13494571 -0.64700001
0.1657552 0.13494571 -0.64700001
0.1669876 0.13494571 -0.64700001
0.16822 0.13494571 -0.64700001
0.1691905 0.1347371 -0.64600003
0.1704209 0.1347371 -0.64600003
0.17165139 0.1347371 -0.64600003
0.1731495 0.13494571 -0.64700001
0.17411239 0.1347371 -0.64600003
0.1753429 0.1347371 -0.64600003
0.17657331 0.1347371 -0.64600003
0.1778038 0.1347371 -0.64600003
0.17903429 0.1347371 -0.64600003
0.1802648 0.1347371 -0.64600003
0.1814952 0.1347371 -0.64600003
0.12366 0.14198001 -0.68699998
0.1247867 0.1417733 -0.68599999
0.1257257 0.14136 -0.68400002
0.1270286 0.14136 -0.68400002
0.127581 0.1405333 -0.68000001
0.1284972 0.14012 -0.67799997
0.12940571 0.1397067 -0.67600012
0.12992001 0.13888 -0.67200011
0.1310048 0.13867331 -0.671
0.1322829 0.13867331 -0.671
0.13336191 0.1384667 -0.67000002
0.1344372 0.13826001 -0.66900003
0.1353057 0.13784669 -0.66700011
0.1363714 0.13764 -0.66600001
0.13764 0.13764 -0.66600001
0.1382829 0.13702001 -0.66299999
0.13954569 0.13702001 -0.66299999
0.1405962 0.1368133 -0.66200012
0.1416429 0.13660669 -0.66100001
0.1426857 0.1364 -0.66000003
0.14350671 0.1359867 -0.65800011
0.14454 0.13578001 -0.65700001
0.1455695 0.1355733 -0.65600002
0.14659519 0.13536669 -0.65499997
0.1478429 0.13536669 -0.65499997
0.1486353 0.13495331 -0.65300012
0.1496495 0.1347467 -0.65200001
0.15065999 0.13454001 -0.65100002
0.1516667 0.1343333 -0.64999998
0.15290479 0.1343333 -0.64999998
0.1541429 0.1343333 -0.64999998
0.15538099 0.1343333 -0.64999998
0.1566191 0.1343333 -0.64999998
0.1573714 0.13392 -0.648
0.15860569 0.13392 -0.648
0.15984 0.13392 -0.648
0.1610743 0.13392 -0.648
0.1623086 0.13392 -0.648
0.1635429 0.13392 -0.648
0.1647771 0.13392 -0.648
0.16601139 0.13392 -0.648
0.1669876 0.1337133 -0.64700001
0.16822 0.1337133 -0.64700001
0.1694524 0.1337133 -0.64700001
0.1704209 0.1335067 -0.64600003
0.17165139 0.1335067 -0.64600003
0.1731495 0.1337133 -0.64700001
0.17411239 0.1335067 -0.64600003
0.1753429 0.1335067 -0.64600003
0.17657331 0.1335067 -0.64600003
0.1778038 0.1335067 -0.64600003
0.17903429 0.1335067 -0.64600003
0.1802648 0.1335067 -0.64600003
0.1814952 0.1335067 -0.64600003
0.1827257 0.1335067 -0.64600003
0.1247867 0.1404667 -0.68599999
0.1260933 0.1404667 -0.68599999
0.1270286 0.1400571 -0.68400002
0.1279562 0.1396476 -0.68199998
0.1286867 0.1390333 -0.67900002
0.12940571 0.13841911 -0.67600012
0.12992001 0.1376 -0.67200011
0.1310048 0.1373952 -0.671
0.1322829 0.1373952 -0.671
0.13336191 0.13719051 -0.67000002
0.1344372 0.1369857 -0.66900003
0.1353057 0.13657621 -0.66700011
0.1363714 0.1363714 -0.66600001
0.13764 0.1363714 -0.66600001
0.1382829 0.1357571 -0.66299999
0.13954569 0.1357571 -0.66299999
0.1405962 0.13555241 -0.66200012
0.1416429 0.1353476 -0.66100001
0.1426857 0.13514289 -0.66000003
0.1439428 0.13514289 -0.66000003
0.14476 0.1347333 -0.65800011
0.1457914 0.13452861 -0.65700001
0.1468191 0.13432381 -0.65600002
0.1478429 0.13411909 -0.65499997
0.1490905 0.13411909 -0.65499997
0.1503381 0.13411909 -0.65499997
0.1511229 0.13370951 -0.65300012
0.1521333 0.13350479 -0.65200001
0.15337519 0.13350479 -0.65200001
0.1546171 0.13350479 -0.65200001
0.15561999 0.13330001 -0.65100002
0.1566191 0.1330952 -0.64999998
0.15785711 0.1330952 -0.64999998
0.1590952 0.1330952 -0.64999998
0.16033331 0.1330952 -0.64999998
0.1610743 0.13268571 -0.648
0.1623086 0.13268571 -0.648
0.1635429 0.13268571 -0.648
0.1647771 0.13268571 -0.648
0.16601139 0.13268571 -0.648
0.1669876 0.1324809 -0.64700001
0.16822 0.1324809 -0.64700001
0.1691905 0.13227621 -0.64600003
0.1704209 0.13227621 -0.64600003
0.17165139 0.13227621 -0.64600003
0.1728819 0.13227621 -0.64600003
0.17411239 0.13227621 -0.64600003
0.1753429 0.13227621 -0.64600003
0.1768467 0.1324809 -0.64700001
0.1780791 0.1324809 -0.64700001
0.17931139 0.1324809 -0.64700001
0.1805438 0.1324809 -0.64700001
0.1817762 0.1324809 -0.64700001
0.1830086 0.1324809 -0.64700001
0.184241 0.1324809 -0.64700001
0.1869943 0.13268571 -0.648
0.1894629 0.13268571 -0.648
0.1247867 0.13916001 -0.68599999
0.1260933 0.13916001 -0.68599999
0.1274 0.13916001 -0.68599999
0.1281438 0.1385514 -0.68300003
0.12887619 0.1379429 -0.68000001
0.12940571 0.13713139 -0.67600012
0.12992001 0.13631999 -0.67200011
0.1310048 0.1361171 -0.671
0.1322829 0.1361171 -0.671
0.13336191 0.1359143 -0.67000002
0.1346381 0.1359143 -0.67000002
0.1357114 0.1357114 -0.66900003
0.1363714 0.1351029 -0.66600001
0.13764 0.1351029 -0.66600001
0.1382829 0.1344943 -0.66299999
0.13954569 0.1344943 -0.66299999
0.1405962 0.1342914 -0.66200012
0.1416429 0.13408861 -0.66100001
0.1429019 0.13408861 -0.66100001
0.1439428 0.1338857 -0.66000003
0.1452 0.1338857 -0.66000003
0.1460133 0.13348 -0.65800011
0.1472667 0.13348 -0.65800011
0.14806861 0.1330743 -0.65600002
0.1493181 0.1330743 -0.65600002
0.1503381 0.1328714 -0.65499997
0.1511229 0.13246571 -0.65300012
0.1521333 0.1322629 -0.65200001
0.15337519 0.1322629 -0.65200001
0.1546171 0.1322629 -0.65200001
0.15561999 0.13206001 -0.65100002
0.15685999 0.13206001 -0.65100002
0.15785711 0.1318572 -0.64999998
0.1590952 0.1318572 -0.64999998
0.16033331 0.1318572 -0.64999998
0.1615714 0.1318572 -0.64999998
0.16280951 0.1318572 -0.64999998
0.1635429 0.1314514 -0.648
0.1647771 0.1314514 -0.648
0.16601139 0.1314514 -0.648
0.1672457 0.1314514 -0.648
0.16822 0.13124859 -0.64700001
0.1694524 0.13124859 -0.64700001
0.1706848 0.13124859 -0.64700001
0.1719171 0.13124859 -0.64700001
0.1731495 0.13124859 -0.64700001
0.17411239 0.1310457 -0.64600003
0.1756143 0.13124859 -0.64700001
0.1768467 0.13124859 -0.64700001
0.1780791 0.13124859 -0.64700001
0.17931139 0.13124859 -0.64700001
0.1805438 0.13124859 -0.64700001
0.1817762 0.13124859 -0.64700001
0.1830086 0.13124859 -0.64700001
0.184241 0.13124859 -0.64700001
0.18576001 0.1314514 -0.648
0.1869943 0.1314514 -0.648
0.18822861 0.1314514 -0.648
0.1894629 0.1314514 -0.648
0.1906971 0.1314514 -0.648
0.12438 0.13885809 -0.69099998
0.1249686 0.1380543 -0.68699998
0.1262771 0.1380543 -0.68699998
0.1274 0.1378534 -0.68599999
0.1279562 0.1370495 -0.68199998
0.12887619 0.1366476 -0.68000001
0.12940571 0.1358438 -0.67600012
0.1305 0.1356429 -0.67500001
0.1312 0.13504 -0.67200011
0.1322829 0.134839 -0.671
0.133561 0.134839 -0.671
0.1346381 0.1346381 -0.67000002
0.1357114 0.1344372 -0.66900003
0.13657621 0.1340352 -0.66700011
0.13764 0.1338343 -0.66600001
0.13869999 0.1336333 -0.66500002
0.13954569 0.1332314 -0.66299999
0.1405962 0.1330305 -0.66200012
0.1418571 0.1330305 -0.66200012
0.1429019 0.1328295 -0.66100001
0.144161 0.1328295 -0.66100001
0.1452 0.1326286 -0.66000003
0.1460133 0.13222671 -0.65800011
0.1472667 0.13222671 -0.65800011
0.1482943 0.1320257 -0.65700001
0.1493181 0.13182481 -0.65600002
0.15056761 0.13182481 -0.65600002
0.1511229 0.13122191 -0.65300012
0.1523667 0.13122191 -0.65300012
0.15337519 0.13102099 -0.65200001
0.1546171 0.13102099 -0.65200001
0.1558591 0.13102099 -0.65200001
0.15685999 0.13082001 -0.65100002
0.15809999 0.13082001 -0.65100002
0.1590952 0.130619 -0.64999998
0.16033331 0.130619 -0.64999998
0.1615714 0.130619 -0.64999998
0.16280951 0.130619 -0.64999998
0.1640476 0.130619 -0.64999998
0.1647771 0.13021711 -0.648
0.16601139 0.13021711 -0.648
0.1672457 0.13021711 -0.648
0.16822 0.13001619 -0.64700001
0.1694524 0.13001619 -0.64700001
0.1704209 0.12981521 -0.64600003
0.17165139 0.12981521 -0.64600003
0.1731495 0.13001619 -0.64700001
0.17411239 0.12981521 -0.64600003
0.1756143 0.13001619 -0.64700001
0.1768467 0.13001619 -0.64700001
0.17835429 0.13021711 -0.648
0.1795886 0.13021711 -0.648
0.1808228 0.13021711 -0.648
0.1820571 0.13021711 -0.648
0.18329141 0.13021711 -0.648
0.1845257 0.13021711 -0.648
0.18576001 0.13021711 -0.648
0.1869943 0.13021711 -0.648
0.18822861 0.13021711 -0.648
0.19004761 0.130619 -0.64999998
0.1912857 0.130619 -0.64999998
0.1213562 0.14012951 -0.70400012
0.1226972 0.14012951 -0.70400012
0.1235981 0.1381391 -0.69400001
0.12474 0.13794 -0.69300002
0.1256962 0.13754191 -0.69099998
0.12664481 0.13714381 -0.68900001
0.1274 0.1365467 -0.68599999
0.1279562 0.1357505 -0.68199998
0.12887619 0.1353524 -0.68000001
0.12978861 0.1349543 -0.67799997
0.1306933 0.1345562 -0.67600012
0.1315905 0.1341581 -0.67400002
0.13248 0.13376001 -0.67200011
0.133561 0.133561 -0.671
0.134839 0.133561 -0.671
0.1359143 0.13336191 -0.67000002
0.1369857 0.1331629 -0.66900003
0.13784669 0.1327648 -0.66700011
0.13890859 0.13256571 -0.66600001
0.13954569 0.1319686 -0.66299999
0.1408086 0.1319686 -0.66299999
0.1418571 0.13176949 -0.66200012
0.1429019 0.1315705 -0.66100001
0.144161 0.1315705 -0.66100001
0.1452 0.13137139 -0.66000003
0.14645711 0.13137139 -0.66000003
0.1472667 0.1309734 -0.65800011
0.14851999 0.1309734 -0.65800011
0.1495457 0.1307743 -0.65700001
0.15056761 0.13057519 -0.65600002
0.1515857 0.1303762 -0.65499997
0.1523667 0.12997811 -0.65300012
0.1536105 0.12997811 -0.65300012
0.1548543 0.12997811 -0.65300012
0.1558591 0.1297791 -0.65200001
0.15685999 0.12958001 -0.65100002
0.15809999 0.12958001 -0.65100002
0.1590952 0.129381 -0.64999998
0.16033331 0.129381 -0.64999998
0.1615714 0.129381 -0.64999998
0.16280951 0.129381 -0.64999998
0.1640476 0.129381 -0.64999998
0.1647771 0.1289829 -0.648
0.16601139 0.1289829 -0.648
0.1672457 0.1289829 -0.648
0.16847999 0.1289829 -0.648
0.1694524 0.12878381 -0.64700001
0.1706848 0.12878381 -0.64700001
0.1719171 0.12878381 -0.64700001
0.1731495 0.12878381 -0.64700001
0.1743819 0.12878381 -0.64700001
0.17588571 0.1289829 -0.648
0.17712 0.1289829 -0.648
0.17835429 0.1289829 -0.648
0.1795886 0.1289829 -0.648
0.1808228 0.1289829 -0.648
0.1820571 0.1289829 -0.648
0.18329141 0.1289829 -0.648
0.1845257 0.1289829 -0.648
0.18576001 0.1289829 -0.648
0.1869943 0.1289829 -0.648
0.1888095 0.129381 -0.64999998
0.19004761 0.129381 -0.64999998
0.1912857 0.129381 -0.64999998
0.1211838 0.13859139 -0.70300001
0.1221743 0.1381972 -0.70099998
0.1233333 0.138 -0.69999999
0.1241324 0.1374086 -0.69700003
0.12492 0.1368171 -0.69400001
0.12605999 0.13662 -0.69300002
0.1268286 0.1360286 -0.69000012
0.1274 0.13524 -0.68599999
0.1281438 0.13464861 -0.68300003
0.12887619 0.1340571 -0.68000001
0.12998 0.13386001 -0.67900002
0.13108 0.13366289 -0.67799997
0.13178571 0.13307139 -0.67500001
0.1328743 0.1328743 -0.67400002
0.13376001 0.13248 -0.67200011
0.134839 0.1322829 -0.671
0.1359143 0.1320857 -0.67000002
0.1369857 0.1318886 -0.66900003
0.13784669 0.1314943 -0.66700011
0.13890859 0.1312971 -0.66600001
0.1399667 0.1311 -0.66500002
0.1408086 0.1307057 -0.66299999
0.1418571 0.1305086 -0.66200012
0.1429019 0.1303114 -0.66100001
0.144161 0.1303114 -0.66100001
0.14542 0.1303114 -0.66100001
0.14645711 0.1301143 -0.66000003
0.1477143 0.1301143 -0.66000003
0.14851999 0.12972 -0.65800011
0.1495457 0.1295229 -0.65700001
0.1507971 0.1295229 -0.65700001
0.1515857 0.12912861 -0.65499997
0.1528333 0.12912861 -0.65499997
0.1536105 0.12873431 -0.65300012
0.1548543 0.12873431 -0.65300012
0.1560981 0.12873431 -0.65300012
0.15710101 0.1285371 -0.65200001
0.1583429 0.1285371 -0.65200001
0.15933999 0.12834001 -0.65100002
0.16057999 0.12834001 -0.65100002
0.1615714 0.12814289 -0.64999998
0.16280951 0.12814289 -0.64999998
0.1640476 0.12814289 -0.64999998
0.16528571 0.12814289 -0.64999998
0.1665238 0.12814289 -0.64999998
0.1672457 0.12774859 -0.648
0.16847999 0.12774859 -0.648
0.1697143 0.12774859 -0.648
0.17094859 0.12774859 -0.648
0.1721829 0.12774859 -0.648
0.17341711 0.12774859 -0.648
0.1746514 0.12774859 -0.648
0.17588571 0.12774859 -0.648
0.17712 0.12774859 -0.648
0.17835429 0.12774859 -0.648
0.1795886 0.12774859 -0.648
0.1808228 0.12774859 -0.648
0.1820571 0.12774859 -0.648
0.18329141 0.12774859 -0.648
0.1845257 0.12774859 -0.648
0.1863333 0.12814289 -0.64999998
0.18757141 0.12814289 -0.64999998
0.1888095 0.12814289 -0.64999998
0.19004761 0.12814289 -0.64999998
0.1912857 0.12814289 -0.64999998
0.1211838 0.13725241 -0.70300001
0.1225229 0.13725241 -0.70300001
0.1235095 0.13686191 -0.70099998
0.1246667 0.1366667 -0.69999999
0.12492 0.1354952 -0.69400001
0.12605999 0.1353 -0.69300002
0.1268286 0.13471431 -0.69000012
0.12758569 0.1341286 -0.68699998
0.1281438 0.1333476 -0.68300003
0.12925521 0.1331524 -0.68199998
0.1301714 0.1327619 -0.68000001
0.1312733 0.13256671 -0.67900002
0.13178571 0.13178571 -0.67500001
0.1328743 0.1315905 -0.67400002
0.13376001 0.1312 -0.67200011
0.134839 0.1310048 -0.671
0.1359143 0.1308095 -0.67000002
0.13719051 0.1308095 -0.67000002
0.13826001 0.1306143 -0.66900003
0.1391172 0.1302238 -0.66700011
0.1399667 0.1298333 -0.66500002
0.1412333 0.1298333 -0.66500002
0.1420714 0.1294429 -0.66299999
0.1431181 0.12924761 -0.66200012
0.144161 0.1290524 -0.66100001
0.14542 0.1290524 -0.66100001
0.146679 0.1290524 -0.66100001
0.1477143 0.1288572 -0.66000003
0.14897139 0.1288572 -0.66000003
0.1497733 0.1284667 -0.65800011
0.1507971 0.1282714 -0.65700001
0.1518171 0.1280762 -0.65600002
0.1528333 0.12788101 -0.65499997
0.154081 0.12788101 -0.65499997
0.1553286 0.12788101 -0.65499997
0.1560981 0.12749051 -0.65300012
0.1573419 0.12749051 -0.65300012
0.1583429 0.1272952 -0.65200001
0.15933999 0.12710001 -0.65100002
0.16057999 0.12710001 -0.65100002
0.16181999 0.12710001 -0.65100002
0.16280951 0.1269048 -0.64999998
0.1640476 0.1269048 -0.64999998
0.16528571 0.1269048 -0.64999998
0.1665238 0.1269048 -0.64999998
0.16776191 0.1269048 -0.64999998
0.16847999 0.1265143 -0.648
0.1697143 0.1265143 -0.648
0.17094859 0.1265143 -0.648
0.1721829 0.1265143 -0.648
0.17341711 0.1265143 -0.648
0.1746514 0.1265143 -0.648
0.17588571 0.1265143 -0.648
0.17712 0.1265143 -0.648
0.17835429 0.1265143 -0.648
0.1795886 0.1265143 -0.648
0.1808228 0.1265143 -0.648
0.1820571 0.1265143 -0.648
0.1838571 0.1269048 -0.64999998
0.18509521 0.1269048 -0.64999998
0.1863333 0.1269048 -0.64999998
0.18757141 0.1269048 -0.64999998
0.1888095 0.1269048 -0.64999998
0.19034 0.12710001 -0.65100002
0.1918743 0.1272952 -0.65200001
0.1931162 0.1272952 -0.65200001
0.1211838 0.1359133 -0.70300001
0.1225229 0.1359133 -0.70300001
0.1235095 0.1355267 -0.70099998
0.1248448 0.1355267 -0.70099998
0.1251 0.13436671 -0.69500011
0.12605999 0.13398001 -0.69300002
0.1268286 0.13339999 -0.69000012
0.12758569 0.13282 -0.68699998
0.12833139 0.13224 -0.68400002
0.12925521 0.1318533 -0.68199998
0.1301714 0.1314667 -0.68000001
0.1312733 0.1312733 -0.67900002
0.1323714 0.13108 -0.67799997
0.13307139 0.1305 -0.67500001
0.13376001 0.12992001 -0.67200011
0.13504 0.12992001 -0.67200011
0.1361171 0.12972669 -0.671
0.13719051 0.12953331 -0.67000002
0.13826001 0.12933999 -0.66900003
0.1391172 0.1289534 -0.66700011
0.1401771 0.12876 -0.66600001
0.1412333 0.1285667 -0.66500002
0.1425 0.1285667 -0.66500002
0.1433343 0.12818 -0.66299999
0.144379 0.1279867 -0.66200012
0.14542 0.1277933 -0.66100001
0.146679 0.1277933 -0.66100001
0.1479381 0.1277933 -0.66100001
0.14897139 0.1276 -0.66000003
0.1497733 0.1272133 -0.65800011
0.1510267 0.1272133 -0.65800011
0.1518171 0.1268267 -0.65600002
0.1528333 0.1266333 -0.65499997
0.154081 0.1266333 -0.65499997
0.1553286 0.1266333 -0.65499997
0.1560981 0.12624671 -0.65300012
0.1573419 0.12624671 -0.65300012
0.1585857 0.12624671 -0.65300012
0.15958481 0.1260533 -0.65200001
0.1608267 0.1260533 -0.65200001
0.16181999 0.12586001 -0.65100002
0.16305999 0.12586001 -0.65100002
0.16429999 0.12586001 -0.65100002
0.16528571 0.12566669 -0.64999998
0.1665238 0.12566669 -0.64999998
0.1672457 0.12527999 -0.648
0.16847999 0.12527999 -0.648
0.1697143 0.12527999 -0.648
0.17094859 0.12527999 -0.648
0.1721829 0.12527999 -0.648
0.17341711 0.12527999 -0.648
0.1746514 0.12527999 -0.648
0.17588571 0.12527999 -0.648
0.17766669 0.12566669 -0.64999998
0.1789048 0.12566669 -0.64999998
0.18014289 0.12566669 -0.64999998
0.181381 0.12566669 -0.64999998
0.18261909 0.12566669 -0.64999998
0.1838571 0.12566669 -0.64999998
0.18509521 0.12566669 -0.64999998
0.1863333 0.12566669 -0.64999998
0.18786 0.12586001 -0.65100002
0.1891 0.12586001 -0.65100002
0.1906324 0.1260533 -0.65200001
0.1918743 0.1260533 -0.65200001
0.1931162 0.1260533 -0.65200001
0.1211838 0.13457429 -0.70300001
0.1225229 0.13457429 -0.70300001
0.1235095 0.13419139 -0.70099998
0.1248448 0.13419139 -0.70099998
0.1251 0.1330429 -0.69500011
0.12605999 0.13266 -0.69300002
0.1268286 0.1320857 -0.69000012
0.12795711 0.13189431 -0.68900001
0.12870669 0.13132 -0.68599999
0.12944479 0.13074569 -0.68300003
0.1305543 0.1305543 -0.68199998
0.1312733 0.12998 -0.67900002
0.13256671 0.12998 -0.67900002
0.13307139 0.1292143 -0.67500001
0.13376001 0.12864 -0.67200011
0.13504 0.12864 -0.67200011
0.1361171 0.12844861 -0.671
0.13719051 0.1282571 -0.67000002
0.13826001 0.12806571 -0.66900003
0.13953429 0.12806571 -0.66900003
0.14038759 0.12768289 -0.66700011
0.1414457 0.1274914 -0.66600001
0.1425 0.12729999 -0.66500002
0.1433343 0.1269172 -0.66299999
0.144379 0.1267257 -0.66200012
0.14564 0.1267257 -0.66200012
0.146679 0.1265343 -0.66100001
0.1479381 0.1265343 -0.66100001
0.14897139 0.12634289 -0.66000003
0.1497733 0.12596001 -0.65800011
0.1507971 0.1257686 -0.65700001
0.1518171 0.12557711 -0.65600002
0.1528333 0.1253857 -0.65499997
0.154081 0.1253857 -0.65499997
0.1548543 0.12500291 -0.65300012
0.1560981 0.12500291 -0.65300012
0.1573419 0.12500291 -0.65300012
0.1585857 0.12500291 -0.65300012
0.15958481 0.1248114 -0.65200001
0.1608267 0.1248114 -0.65200001
0.16181999 0.12462 -0.65100002
0.16280951 0.1244286 -0.64999998
0.1640476 0.1244286 -0.64999998
0.16528571 0.1244286 -0.64999998
0.1665238 0.1244286 -0.64999998
0.16776191 0.1244286 -0.64999998
0.169 0.1244286 -0.64999998
0.17023811 0.1244286 -0.64999998
0.17094859 0.1240457 -0.648
0.1721829 0.1240457 -0.648
0.17341711 0.1240457 -0.648
0.1746514 0.1240457 -0.648
0.1764286 0.1244286 -0.64999998
0.17766669 0.1244286 -0.64999998
0.1789048 0.1244286 -0.64999998
0.18014289 0.1244286 -0.64999998
0.181381 0.1244286 -0.64999998
0.18261909 0.1244286 -0.64999998
0.1838571 0.1244286 -0.64999998
0.18538 0.12462 -0.65100002
0.18662 0.12462 -0.65100002
0.18786 0.12462 -0.65100002
0.1891 0.12462 -0.65100002
0.1906324 0.1248114 -0.65200001
0.1918743 0.1248114 -0.65200001
0.1931162 0.1248114 -0.65200001
0.1943581 0.1248114 -0.65200001
0.1225229 0.1332352 -0.70300001
0.1235095 0.13285621 -0.70099998
0.1248448 0.13285621 -0.70099998
0.12546 0.13209809 -0.69700003
0.12624189 0.1315295 -0.69400001
0.12738 0.13134 -0.69300002
0.12814289 0.1307714 -0.69000012
0.1288943 0.1302029 -0.68699998
0.12944479 0.12944479 -0.68300003
0.1305543 0.12925521 -0.68199998
0.1314667 0.12887619 -0.68000001
0.13256671 0.1286867 -0.67900002
0.13307139 0.1279286 -0.67500001
0.13376001 0.12736 -0.67200011
0.13504 0.12736 -0.67200011
0.1361171 0.1271705 -0.671
0.13719051 0.1269809 -0.67000002
0.1384667 0.1269809 -0.67000002
0.13953429 0.1267914 -0.66900003
0.14038759 0.12641241 -0.66700011
0.1414457 0.1262228 -0.66600001
0.1425 0.12603331 -0.66500002
0.1433343 0.1256543 -0.66299999
0.1445972 0.1256543 -0.66299999
0.14564 0.1254648 -0.66200012
0.146679 0.12527519 -0.66100001
0.1479381 0.12527519 -0.66100001
0.14897139 0.1250857 -0.66000003
0.1497733 0.1247067 -0.65800011
0.1510267 0.1247067 -0.65800011
0.1518171 0.1243276 -0.65600002
0.1528333 0.1241381 -0.65499997
0.154081 0.1241381 -0.65499997
0.1553286 0.1241381 -0.65499997
0.1560981 0.1237591 -0.65300012
0.1573419 0.1237591 -0.65300012
0.1585857 0.1237591 -0.65300012
0.15958481 0.1235695 -0.65200001
0.1608267 0.1235695 -0.65200001
0.16181999 0.12338 -0.65100002
0.16280951 0.1231905 -0.64999998
0.16429999 0.12338 -0.65100002
0.16528571 0.1231905 -0.64999998
0.1665238 0.1231905 -0.64999998
0.16776191 0.1231905 -0.64999998
0.169 0.1231905 -0.64999998
0.17023811 0.1231905 -0.64999998
0.1714762 0.1231905 -0.64999998
0.1721829 0.1228114 -0.648
0.1739524 0.1231905 -0.64999998
0.17519049 0.1231905 -0.64999998
0.1764286 0.1231905 -0.64999998
0.17766669 0.1231905 -0.64999998
0.1789048 0.1231905 -0.64999998
0.18014289 0.1231905 -0.64999998
0.181381 0.1231905 -0.64999998
0.18261909 0.1231905 -0.64999998
0.18414 0.12338 -0.65100002
0.18538 0.12338 -0.65100002
0.1869067 0.1235695 -0.65200001
0.1881486 0.1235695 -0.65200001
0.18968099 0.1237591 -0.65300012
0.19092479 0.1237591 -0.65300012
0.1927571 0.1241381 -0.65499997
0.1940048 0.1241381 -0.65499997
0.1952524 0.1241381 -0.65499997
0.1965 0.1241381 -0.65499997
0.1225229 0.1318962 -0.70300001
0.1235095 0.131521 -0.70099998
0.1246667 0.13133331 -0.69999999
0.1251 0.1303952 -0.69500011
0.12624189 0.1302076 -0.69400001
0.12738 0.13001999 -0.69300002
0.12814289 0.1294571 -0.69000012
0.1288943 0.1288943 -0.68699998
0.12944479 0.1281438 -0.68300003
0.1305543 0.1279562 -0.68199998
0.1314667 0.127581 -0.68000001
0.13256671 0.12739331 -0.67900002
0.13326859 0.1268305 -0.67600012
0.1341581 0.1264552 -0.67400002
0.13504 0.12608001 -0.67200011
0.1361171 0.1258924 -0.671
0.1373952 0.1258924 -0.671
0.1384667 0.1257048 -0.67000002
0.13953429 0.1255171 -0.66900003
0.1408086 0.1255171 -0.66900003
0.1414457 0.1249543 -0.66600001
0.14271431 0.1249543 -0.66600001
0.1437667 0.1247667 -0.66500002
0.1445972 0.1243914 -0.66299999
0.14586 0.1243914 -0.66299999
0.146901 0.1242038 -0.66200012
0.1479381 0.1240162 -0.66100001
0.1491971 0.1240162 -0.66100001
0.1497733 0.1234533 -0.65800011
0.1510267 0.1234533 -0.65800011
0.1518171 0.1230781 -0.65600002
0.15306669 0.1230781 -0.65600002
0.154081 0.1228905 -0.65499997
0.1553286 0.1228905 -0.65499997
0.1565762 0.1228905 -0.65499997
0.1578238 0.1228905 -0.65499997
0.1585857 0.1225152 -0.65300012
0.1598295 0.1225152 -0.65300012
0.1610733 0.1225152 -0.65300012
0.16206861 0.1223276 -0.65200001
0.16305999 0.12214 -0.65100002
0.16429999 0.12214 -0.65100002
0.16528571 0.1219524 -0.64999998
0.1665238 0.1219524 -0.64999998
0.16776191 0.1219524 -0.64999998
0.169 0.1219524 -0.64999998
0.17023811 0.1219524 -0.64999998
0.1714762 0.1219524 -0.64999998
0.17271429 0.1219524 -0.64999998
0.1739524 0.1219524 -0.64999998
0.17519049 0.1219524 -0.64999998
0.1764286 0.1219524 -0.64999998
0.17794 0.12214 -0.65100002
0.1789048 0.1219524 -0.64999998
0.18042 0.12214 -0.65100002
0.18166 0.12214 -0.65100002
0.1829 0.12214 -0.65100002
0.18414 0.12214 -0.65100002
0.1856648 0.1223276 -0.65200001
0.1869067 0.1223276 -0.65200001
0.18843719 0.1225152 -0.65300012
0.18968099 0.1225152 -0.65300012
0.19092479 0.1225152 -0.65300012
0.1927571 0.1228905 -0.65499997
0.1940048 0.1228905 -0.65499997
0.1955505 0.1230781 -0.65600002
0.19679999 0.1230781 -0.65600002
0.1225229 0.1305571 -0.70300001
0.1238619 0.1305571 -0.70300001
0.1253791 0.13074289 -0.70400012
0.12492 0.1288857 -0.69400001
0.12605999 0.1287 -0.69300002
0.12738 0.1287 -0.69300002
0.12795711 0.12795711 -0.68900001
0.1288943 0.12758569 -0.68699998
0.12963431 0.1270286 -0.68400002
0.13074569 0.1268429 -0.68300003
0.1314667 0.1262857 -0.68000001
0.1327619 0.1262857 -0.68000001
0.13326859 0.12554289 -0.67600012
0.13435709 0.12535711 -0.67500001
0.1354419 0.12517139 -0.67400002
0.1361171 0.1246143 -0.671
0.1373952 0.1246143 -0.671
0.1384667 0.1244286 -0.67000002
0.1397429 0.1244286 -0.67000002
0.1408086 0.1242429 -0.66900003
0.1414457 0.1236857 -0.66600001
0.14271431 0.1236857 -0.66600001
0.1437667 0.1235 -0.66500002
0.1450333 0.1235 -0.66500002
0.14586 0.1231286 -0.66299999
0.146901 0.1229429 -0.66200012
0.1481619 0.1229429 -0.66200012
0.1491971 0.1227571 -0.66100001
0.1502286 0.1225714 -0.66000003
0.1510267 0.1222 -0.65800011
0.1520486 0.1220143 -0.65700001
0.15306669 0.1218286 -0.65600002
0.1543162 0.1218286 -0.65600002
0.1553286 0.1216429 -0.65499997
0.1565762 0.1216429 -0.65499997
0.1578238 0.1216429 -0.65499997
0.1590714 0.1216429 -0.65499997
0.1598295 0.1212714 -0.65300012
0.1610733 0.1212714 -0.65300012
0.1623172 0.1212714 -0.65300012
0.1633105 0.1210857 -0.65200001
0.16455241 0.1210857 -0.65200001
0.16553999 0.1209 -0.65100002
0.16677999 0.1209 -0.65100002
0.16776191 0.1207143 -0.64999998
0.16926 0.1209 -0.65100002
0.1705 0.1209 -0.65100002
0.17174 0.1209 -0.65100002
0.17298 0.1209 -0.65100002
0.1739524 0.1207143 -0.64999998
0.17546 0.1209 -0.65100002
0.1767 0.1209 -0.65100002
0.17794 0.1209 -0.65100002
0.17918 0.1209 -0.65100002
0.1806971 0.1210857 -0.65200001
0.18193901 0.1210857 -0.65200001
0.1831809 0.1210857 -0.65200001
0.1844229 0.1210857 -0.65200001
0.1856648 0.1210857 -0.65200001
0.1871933 0.1212714 -0.65300012
0.18843719 0.1212714 -0.65300012
0.18968099 0.1212714 -0.65300012
0.1915095 0.1216429 -0.65499997
0.1927571 0.1216429 -0.65499997
0.1940048 0.1216429 -0.65499997
0.1955505 0.1218286 -0.65600002
0.1971 0.1220143 -0.65700001
0.1983514 0.1220143 -0.65700001
0.1996029 0.1220143 -0.65700001
0.1226972 0.12940191 -0.70400012
0.1238619 0.1292181 -0.70300001
0.125201 0.1292181 -0.70300001
0.12672 0.12940191 -0.70400012
0.12605999 0.12738 -0.69300002
0.1268286 0.1268286 -0.69000012
0.12795711 0.12664481 -0.68900001
0.1288943 0.1262771 -0.68699998
0.12963431 0.1257257 -0.68400002
0.13074569 0.1255419 -0.68300003
0.1318533 0.1253581 -0.68199998
0.1327619 0.1249905 -0.68000001
0.13326859 0.1242553 -0.67600012
0.13435709 0.1240714 -0.67500001
0.1354419 0.1238876 -0.67400002
0.13631999 0.12352 -0.67200011
0.1373952 0.1233362 -0.671
0.13867331 0.1233362 -0.671
0.1397429 0.1231524 -0.67000002
0.1408086 0.1229686 -0.66900003
0.1414457 0.1224171 -0.66600001
0.14271431 0.1224171 -0.66600001
0.1437667 0.1222333 -0.66500002
0.1450333 0.1222333 -0.66500002
0.14586 0.1218657 -0.66299999
0.1471229 0.1218657 -0.66299999
0.1481619 0.1216819 -0.66200012
0.1491971 0.1214981 -0.66100001
0.1502286 0.1213143 -0.66000003
0.1514857 0.1213143 -0.66000003
0.1520486 0.1207629 -0.65700001
0.1533 0.1207629 -0.65700001
0.1543162 0.120579 -0.65600002
0.15556569 0.120579 -0.65600002
0.1565762 0.1203952 -0.65499997
0.1578238 0.1203952 -0.65499997
0.1590714 0.1203952 -0.65499997
0.160319 0.1203952 -0.65499997
0.1615667 0.1203952 -0.65499997
0.1628143 0.1203952 -0.65499997
0.163561 0.1200276 -0.65300012
0.1648048 0.1200276 -0.65300012
0.1660486 0.1200276 -0.65300012
0.1672924 0.1200276 -0.65300012
0.1682781 0.1198438 -0.65200001
0.16952001 0.1198438 -0.65200001
0.1707619 0.1198438 -0.65200001
0.17174 0.11966 -0.65100002
0.17298 0.11966 -0.65100002
0.17422 0.11966 -0.65100002
0.1757295 0.1198438 -0.65200001
0.17697141 0.1198438 -0.65200001
0.1782133 0.1198438 -0.65200001
0.1794553 0.1198438 -0.65200001
0.1806971 0.1198438 -0.65200001
0.18193901 0.1198438 -0.65200001
0.1834619 0.1200276 -0.65300012
0.1847057 0.1200276 -0.65300012
0.1859495 0.1200276 -0.65300012
0.1871933 0.1200276 -0.65300012
0.18843719 0.1200276 -0.65300012
0.1902619 0.1203952 -0.65499997
0.1915095 0.1203952 -0.65499997
0.1943009 0.120579 -0.65600002
0.1971 0.1207629 -0.65700001
0.1983514 0.1207629 -0.65700001
0.1996029 0.1207629 -0.65700001
0.1226972 0.128061 -0.70400012
0.1240381 0.128061 -0.70400012
0.1253791 0.128061 -0.70400012
0.12654001 0.12787899 -0.70300001
0.12605999 0.12605999 -0.69300002
0.1268286 0.1255143 -0.69000012
0.12795711 0.1253324 -0.68900001
0.1288943 0.1249686 -0.68699998
0.12963431 0.1244229 -0.68400002
0.13074569 0.124241 -0.68300003
0.1314667 0.1236952 -0.68000001
0.13256671 0.1235133 -0.67900002
0.13326859 0.1229676 -0.67600012
0.1345562 0.1229676 -0.67600012
0.1356429 0.1227857 -0.67500001
0.13672569 0.1226038 -0.67400002
0.1376 0.12224 -0.67200011
0.13867331 0.1220581 -0.671
0.1397429 0.1218762 -0.67000002
0.1408086 0.1216943 -0.66900003
0.1414457 0.1211486 -0.66600001
0.14271431 0.1211486 -0.66600001
0.1439829 0.1211486 -0.66600001
0.1450333 0.1209667 -0.66500002
0.1463 0.1209667 -0.66500002
0.1471229 0.1206029 -0.66299999
0.1481619 0.120421 -0.66200012
0.1491971 0.120239 -0.66100001
0.15045621 0.120239 -0.66100001
0.1514857 0.1200571 -0.66000003
0.15228 0.1196933 -0.65800011
0.15353329 0.1196933 -0.65800011
0.1545514 0.1195114 -0.65700001
0.15556569 0.1193295 -0.65600002
0.1568152 0.1193295 -0.65600002
0.1580648 0.1193295 -0.65600002
0.1593143 0.1193295 -0.65600002
0.160319 0.1191476 -0.65499997
0.1615667 0.1191476 -0.65499997
0.1628143 0.1191476 -0.65499997
0.163561 0.1187838 -0.65300012
0.1648048 0.1187838 -0.65300012
0.1660486 0.1187838 -0.65300012
0.1672924 0.1187838 -0.65300012
0.1682781 0.1186019 -0.65200001
0.16952001 0.1186019 -0.65200001
0.1707619 0.1186019 -0.65200001
0.17200381 0.1186019 -0.65200001
0.1732457 0.1186019 -0.65200001
0.17448761 0.1186019 -0.65200001
0.1757295 0.1186019 -0.65200001
0.17697141 0.1186019 -0.65200001
0.1782133 0.1186019 -0.65200001
0.1794553 0.1186019 -0.65200001
0.1809743 0.1187838 -0.65300012
0.1822181 0.1187838 -0.65300012
0.1834619 0.1187838 -0.65300012
0.1847057 0.1187838 -0.65300012
0.1859495 0.1187838 -0.65300012
0.1871933 0.1187838 -0.65300012
0.18843719 0.1187838 -0.65300012
0.1902619 0.1191476 -0.65499997
0.1955505 0.1193295 -0.65600002
0.1971 0.1195114 -0.65700001
0.1983514 0.1195114 -0.65700001
0.19990671 0.1196933 -0.65800011
0.20116 0.1196933 -0.65800011
0.20241331 0.1196933 -0.65800011
0.1226972 0.12672 -0.70400012
0.1240381 0.12672 -0.70400012
0.125201 0.12654001 -0.70300001
0.12672 0.12672 -0.70400012
0.12624189 0.12492 -0.69400001
0.12738 0.12474 -0.69300002
0.12814289 0.1242 -0.69000012
0.1288943 0.12366 -0.68699998
0.12963431 0.12312 -0.68400002
0.13074569 0.12294 -0.68300003
0.1314667 0.1224 -0.68000001
0.13256671 0.12222 -0.67900002
0.13326859 0.12168 -0.67600012
0.1345562 0.12168 -0.67600012
0.1356429 0.1215 -0.67500001
0.13672569 0.12132 -0.67400002
0.1380095 0.12132 -0.67400002
0.13867331 0.12078 -0.671
0.13995139 0.12078 -0.671
0.1408086 0.12042 -0.66900003
0.1416581 0.12006 -0.66700011
0.1429286 0.12006 -0.66700011
0.1439829 0.11988 -0.66600001
0.14525139 0.11988 -0.66600001
0.1463 0.1197 -0.66500002
0.14756671 0.1197 -0.66500002
0.1483857 0.11934 -0.66299999
0.1494229 0.11916 -0.66200012
0.15045621 0.11898 -0.66100001
0.1517152 0.11898 -0.66100001
0.15274291 0.1188 -0.66000003
0.15353329 0.11844 -0.65800011
0.15478671 0.11844 -0.65800011
0.15580291 0.11826 -0.65700001
0.15705431 0.11826 -0.65700001
0.1583057 0.11826 -0.65700001
0.1595571 0.11826 -0.65700001
0.1605638 0.11808 -0.65600002
0.1615667 0.1179 -0.65499997
0.1628143 0.1179 -0.65499997
0.163561 0.11754 -0.65300012
0.1648048 0.11754 -0.65300012
0.1660486 0.11754 -0.65300012
0.1672924 0.11754 -0.65300012
0.1682781 0.11736 -0.65200001
0.16952001 0.11736 -0.65200001
0.1710238 0.11754 -0.65300012
0.17200381 0.11736 -0.65200001
0.1732457 0.11736 -0.65200001
0.17448761 0.11736 -0.65200001
0.1759991 0.11754 -0.65300012
0.1772429 0.11754 -0.65300012
0.1784867 0.11754 -0.65300012
0.1797305 0.11754 -0.65300012
0.1809743 0.11754 -0.65300012
0.1822181 0.11754 -0.65300012
0.1834619 0.11754 -0.65300012
0.1847057 0.11754 -0.65300012
0.1859495 0.11754 -0.65300012
0.1877667 0.1179 -0.65499997
0.1890143 0.1179 -0.65499997
0.1902619 0.1179 -0.65499997
0.1915095 0.1179 -0.65499997
0.1927571 0.1179 -0.65499997
0.1971 0.11826 -0.65700001
0.1986533 0.11844 -0.65800011
0.19990671 0.11844 -0.65800011
0.20116 0.11844 -0.65800011
0.20241331 0.11844 -0.65800011
0.1226972 0.1253791 -0.70400012
0.1238619 0.125201 -0.70300001
0.125201 0.125201 -0.70300001
0.12564 0.1243105 -0.69800001
0.12624189 0.1235981 -0.69400001
0.12738 0.12342 -0.69300002
0.12814289 0.1228857 -0.69000012
0.1292695 0.1227076 -0.68900001
0.1300133 0.1221733 -0.68599999
0.13074569 0.1216391 -0.68300003
0.1314667 0.1211048 -0.68000001
0.1327619 0.1211048 -0.68000001
0.13326859 0.1203924 -0.67600012
0.1345562 0.1203924 -0.67600012
0.1358438 0.1203924 -0.67600012
0.1369286 0.1202143 -0.67500001
0.13821431 0.1202143 -0.67500001
0.1392933 0.1200362 -0.67400002
0.14015999 0.11968 -0.67200011
0.1412295 0.1195019 -0.671
0.1420829 0.1191457 -0.66900003
0.1429286 0.1187895 -0.66700011
0.1441991 0.1187895 -0.66700011
0.14525139 0.1186114 -0.66600001
0.14652 0.1186114 -0.66600001
0.14756671 0.1184333 -0.66500002
0.1483857 0.1180772 -0.66299999
0.1494229 0.1178991 -0.66200012
0.15068381 0.1178991 -0.66200012
0.1517152 0.117721 -0.66100001
0.15274291 0.1175429 -0.66000003
0.154 0.1175429 -0.66000003
0.1552572 0.1175429 -0.66000003
0.15604 0.1171867 -0.65800011
0.1572933 0.1171867 -0.65800011
0.1585467 0.1171867 -0.65800011
0.1595571 0.1170086 -0.65700001
0.16080859 0.1170086 -0.65700001
0.1618133 0.1168305 -0.65600002
0.1628143 0.1166524 -0.65499997
0.1640619 0.1166524 -0.65499997
0.1648048 0.1162962 -0.65300012
0.1660486 0.1162962 -0.65300012
0.1672924 0.1162962 -0.65300012
0.1685362 0.1162962 -0.65300012
0.16978 0.1162962 -0.65300012
0.1710238 0.1162962 -0.65300012
0.17200381 0.1161181 -0.65200001
0.1735114 0.1162962 -0.65300012
0.17448761 0.1161181 -0.65200001
0.1759991 0.1162962 -0.65300012
0.1772429 0.1162962 -0.65300012
0.1784867 0.1162962 -0.65300012
0.1797305 0.1162962 -0.65300012
0.1809743 0.1162962 -0.65300012
0.1822181 0.1162962 -0.65300012
0.1834619 0.1162962 -0.65300012
0.1852714 0.1166524 -0.65499997
0.1865191 0.1166524 -0.65499997
0.1877667 0.1166524 -0.65499997
0.1890143 0.1166524 -0.65499997
0.1902619 0.1166524 -0.65499997
0.1915095 0.1166524 -0.65499997
0.1930514 0.1168305 -0.65600002
0.1958486 0.1170086 -0.65700001
0.1971 0.1170086 -0.65700001
0.1986533 0.1171867 -0.65800011
0.19990671 0.1171867 -0.65800011
0.20116 0.1171867 -0.65800011
0.20241331 0.1171867 -0.65800011
0.2036667 0.1171867 -0.65800011
0.12172 0.1258 -0.71399999
0.12308 0.1258 -0.71399999
0.1228714 0.1242143 -0.70499998
0.1240381 0.1240381 -0.70400012
0.125201 0.1238619 -0.70300001
0.126 0.1233333 -0.69999999
0.12642381 0.1224524 -0.69500011
0.1275638 0.1222762 -0.69400001
0.12814289 0.1215714 -0.69000012
0.1288943 0.1210429 -0.68699998
0.1300133 0.1208667 -0.68599999
0.1309371 0.1205143 -0.68400002
0.1320467 0.1203381 -0.68300003
0.1327619 0.1198095 -0.68000001
0.13386001 0.1196333 -0.67900002
0.1349543 0.1194571 -0.67799997
0.1358438 0.1191048 -0.67600012
0.13713139 0.1191048 -0.67600012
0.13841911 0.1191048 -0.67600012
0.13950001 0.1189286 -0.67500001
0.14057709 0.1187524 -0.67400002
0.1412295 0.1182238 -0.671
0.1425076 0.1182238 -0.671
0.1433571 0.1178714 -0.66900003
0.1446314 0.1178714 -0.66900003
0.1454695 0.1175191 -0.66700011
0.14652 0.1173429 -0.66600001
0.14756671 0.1171667 -0.66500002
0.1488333 0.1171667 -0.66500002
0.14964861 0.1168143 -0.66299999
0.15068381 0.1166381 -0.66200012
0.1519448 0.1166381 -0.66200012
0.15274291 0.1162857 -0.66000003
0.154 0.1162857 -0.66000003
0.1552572 0.1162857 -0.66000003
0.1565143 0.1162857 -0.66000003
0.15777139 0.1162857 -0.66000003
0.1585467 0.1159333 -0.65800011
0.15979999 0.1159333 -0.65800011
0.16080859 0.1157571 -0.65700001
0.16205999 0.1157571 -0.65700001
0.1628143 0.1154048 -0.65499997
0.1640619 0.1154048 -0.65499997
0.1653095 0.1154048 -0.65499997
0.1660486 0.1150524 -0.65300012
0.1672924 0.1150524 -0.65300012
0.1685362 0.1150524 -0.65300012
0.16978 0.1150524 -0.65300012
0.1710238 0.1150524 -0.65300012
0.1722676 0.1150524 -0.65300012
0.1735114 0.1150524 -0.65300012
0.1747552 0.1150524 -0.65300012
0.1759991 0.1150524 -0.65300012
0.1772429 0.1150524 -0.65300012
0.1784867 0.1150524 -0.65300012
0.1797305 0.1150524 -0.65300012
0.1815286 0.1154048 -0.65499997
0.1822181 0.1150524 -0.65300012
0.1840238 0.1154048 -0.65499997
0.1852714 0.1154048 -0.65499997
0.1865191 0.1154048 -0.65499997
0.1877667 0.1154048 -0.65499997
0.1890143 0.1154048 -0.65499997
0.1902619 0.1154048 -0.65499997
0.1915095 0.1154048 -0.65499997
0.1930514 0.115581 -0.65600002
0.1943009 0.115581 -0.65600002
0.1958486 0.1157571 -0.65700001
0.1974 0.1159333 -0.65800011
0.1986533 0.1159333 -0.65800011
0.2005143 0.1162857 -0.66000003
0.20177139 0.1162857 -0.66000003
0.2030286 0.1162857 -0.66000003
0.2042857 0.1162857 -0.66000003
0.20554291 0.1162857 -0.66000003
0.1215495 0.1242657 -0.71300012
0.1223905 0.1237429 -0.70999998
0.1228714 0.1228714 -0.70499998
0.1242143 0.1228714 -0.70499998
0.1253791 0.1226972 -0.70400012
0.12654001 0.1225229 -0.70300001
0.1275152 0.1221743 -0.70099998
0.1277476 0.1211286 -0.69500011
0.12814289 0.1202572 -0.69000012
0.1288943 0.1197343 -0.68699998
0.1300133 0.11956 -0.68599999
0.1309371 0.1192114 -0.68400002
0.1320467 0.1190371 -0.68300003
0.1331524 0.1188629 -0.68199998
0.1340571 0.1185143 -0.68000001
0.1349543 0.1181657 -0.67799997
0.1362457 0.1181657 -0.67799997
0.13713139 0.1178171 -0.67600012
0.13841911 0.1178171 -0.67600012
0.13950001 0.1176429 -0.67500001
0.14057709 0.1174686 -0.67400002
0.14144 0.11712 -0.67200011
0.1425076 0.1169457 -0.671
0.14357141 0.1167714 -0.67000002
0.1448476 0.1167714 -0.67000002
0.1459057 0.1165971 -0.66900003
0.14674 0.1162486 -0.66700011
0.1477886 0.1160743 -0.66600001
0.1488333 0.1159 -0.66500002
0.15009999 0.1159 -0.66500002
0.15091141 0.1155514 -0.66299999
0.15217429 0.1155514 -0.66299999
0.15297429 0.1152029 -0.66100001
0.15423331 0.1152029 -0.66100001
0.1554924 0.1152029 -0.66100001
0.1565143 0.1150286 -0.66000003
0.15777139 0.1150286 -0.66000003
0.1585467 0.11468 -0.65800011
0.15979999 0.11468 -0.65800011
0.1610533 0.11468 -0.65800011
0.16205999 0.1145057 -0.65700001
0.1630629 0.1143314 -0.65600002
0.1640619 0.1141571 -0.65499997
0.1653095 0.1141571 -0.65499997
0.1665571 0.1141571 -0.65499997
0.16780481 0.1141571 -0.65499997
0.1685362 0.1138086 -0.65300012
0.16978 0.1138086 -0.65300012
0.1710238 0.1138086 -0.65300012
0.1722676 0.1138086 -0.65300012
0.1740429 0.1141571 -0.65499997
0.1747552 0.1138086 -0.65300012
0.1759991 0.1138086 -0.65300012
0.17778569 0.1141571 -0.65499997
0.1790334 0.1141571 -0.65499997
0.180281 0.1141571 -0.65499997
0.1815286 0.1141571 -0.65499997
0.1827762 0.1141571 -0.65499997
0.1840238 0.1141571 -0.65499997
0.1852714 0.1141571 -0.65499997
