# .PCD v0.7 - Point Cloud Data file format
VERSION 0.7
FIELDS x y z
SIZE 4 4 4
TYPE F F F
COUNT 1 1 1
WIDTH 1599
HEIGHT 1
VIEWPOINT 0 0 0 1 0 0 0
POINTS 1599
DATA ascii
0.7844913 -0.57832211 1.9930001
0.78798574 -0.57832211 1.9930001
0.78671449 -0.57483995 1.9810001
0.7901879 -0.57483995 1.9810001
0.79366124 -0.57483995 1.9810001
0.79713458 -0.57483995 1.9810001
0.80545771 -0.57832211 1.9930001
0.80895209 -0.57832211 1.9930001
0.81244648 -0.57832211 1.9930001
0.811028 -0.57483995 1.9810001
0.81943524 -0.57832211 1.9930001
0.82292962 -0.57832211 1.9930001
0.82144809 -0.57483995 1.9810001
0.82492143 -0.57483995 1.9810001
0.82839477 -0.57483995 1.9810001
0.83186811 -0.57483995 1.9810001
0.83534145 -0.57483995 1.9810001
0.84389603 -0.57832211 1.9930001
0.8422882 -0.57483995 1.9810001
0.8508848 -0.57832211 1.9930001
0.85437924 -0.57832211 1.9930001
0.85787356 -0.57832211 1.9930001
0.861368 -0.57832211 1.9930001
0.86486238 -0.57832211 1.9930001
0.86835676 -0.57832211 1.9930001
0.87185115 -0.57832211 1.9930001
0.87534559 -0.57832211 1.9930001
0.87354839 -0.57483995 1.9810001
0.87702173 -0.57483995 1.9810001
0.88049501 -0.57483995 1.9810001
0.88396841 -0.57483995 1.9810001
0.88744175 -0.57483995 1.9810001
0.89631188 -0.57832211 1.9930001
0.89980626 -0.57832211 1.9930001
0.9033007 -0.57832211 1.9930001
0.90679508 -0.57832211 1.9930001
0.91028947 -0.57832211 1.9930001
0.91378391 -0.57832211 1.9930001
0.91727829 -0.57832211 1.9930001
0.92077261 -0.57832211 1.9930001
0.92426711 -0.57832211 1.9930001
0.92776144 -0.57832211 1.9930001
0.93686301 -0.58180422 2.0050001
0.94037843 -0.58180422 2.0050001
0.94389385 -0.58180422 2.0050001
0.94740933 -0.58180422 2.0050001
0.95092475 -0.58180422 2.0050001
0.95444018 -0.58180422 2.0050001
0.9579556 -0.58180422 2.0050001
0.96147108 -0.58180422 2.0050001
0.9649865 -0.58180422 2.0050001
0.96270537 -0.57832211 1.9930001
0.96619976 -0.57832211 1.9930001
0.97553271 -0.58180422 2.0050001
0.97904819 -0.58180422 2.0050001
0.9766829 -0.57832211 1.9930001
0.9801774 -0.57832211 1.9930001
0.98959452 -0.58180422 2.0050001
0.99310994 -0.58180422 2.0050001
0.99066061 -0.57832211 1.9930001
1.0001408 -0.58180422 2.0050001
1.0036563 -0.58180422 2.0050001
1.0071718 -0.58180422 2.0050001
1.0106871 -0.58180422 2.0050001
1.0142025 -0.58180422 2.0050001
1.017718 -0.58180422 2.0050001
1.0212333 -0.58180422 2.0050001
1.0303708 -0.58499616 2.016
1.0282643 -0.58180422 2.0050001
1.0317796 -0.58180422 2.0050001
1.0352951 -0.58180422 2.0050001
1.0388106 -0.58180422 2.0050001
1.042326 -0.58180422 2.0050001
1.0458415 -0.58180422 2.0050001
1.0493569 -0.58180422 2.0050001
1.0465709 -0.57832211 1.9930001
1.0500653 -0.57832211 1.9930001
1.0535595 -0.57832211 1.9930001
1.057054 -0.57832211 1.9930001
1.0605484 -0.57832211 1.9930001
1.0704495 -0.58180422 2.0050001
1.0739648 -0.58180422 2.0050001
1.0710316 -0.57832211 1.9930001
1.074526 -0.57832211 1.9930001
1.0715295 -0.57483995 1.9810001
1.0690336 -0.57164806 1.9700001
1.0724877 -0.57164806 1.9700001
1.0759418 -0.57164806 1.9700001
nan nan nan
nan nan nan
nan nan nan
nan nan nan
nan nan nan
nan nan nan
nan nan nan
nan nan nan
-1.1500702 -0.59213316 2.0530002
-1.1531717 -0.59559417 2.0650001
-1.149551 -0.59559417 2.0650001
-1.1459304 -0.59559417 2.0650001
-1.1495011 -0.59934372 2.0780001
-1.1458577 -0.59934372 2.0780001
-1.1488103 -0.60280478 2.0900002
-1.1522688 -0.60655427 2.1030002
-1.1485815 -0.60655427 2.1030002
-1.1448942 -0.60655427 2.1030002
-1.141207 -0.60655427 2.1030002
-1.1445515 -0.61030382 2.1160002
-1.1408415 -0.61030382 2.1160002
-1.1371315 -0.61030382 2.1160002
-1.1334213 -0.61030382 2.1160002
-1.1297114 -0.61030382 2.1160002
-1.132919 -0.61405331 2.1290002
-1.1291863 -0.61405331 2.1290002
-1.2163776 -0.66366214 2.3010001
-1.2123432 -0.66366214 2.3010001
-1.2251128 -0.67289168 2.3330002
-1.2126484 -0.66827685 2.3170002
-1.2085859 -0.66827685 2.3170002
-1.2128412 -0.67289168 2.3330002
-1.2170404 -0.67750645 2.3490002
-1.2211834 -0.68212116 2.365
-1.2252705 -0.68673593 2.381
-1.2298142 -0.69163913 2.398
-1.2342985 -0.69654238 2.4150002
-1.2300642 -0.69654238 2.4150002
-1.22583 -0.69654238 2.4150002
-1.2215955 -0.69654238 2.4150002
-1.2173613 -0.69654238 2.4150002
-1.213127 -0.69654238 2.4150002
-1.2174025 -0.70144558 2.4320002
-1.2131383 -0.70144558 2.4320002
-1.2088742 -0.70144558 2.4320002
-1.2135258 -0.70663714 2.45
-1.2176207 -0.71154034 2.467
-1.2221478 -0.71673203 2.4850001
-1.2177908 -0.71673203 2.4850001
-1.2222232 -0.72192359 2.503
-1.2178346 -0.72192359 2.503
-1.2226572 -0.72740364 2.5220001
-1.2182353 -0.72740364 2.5220001
-1.2229578 -0.73288369 2.5410001
-1.2185028 -0.73288369 2.5410001
-1.2231253 -0.73836374 2.5600002
-1.2186369 -0.73836374 2.5600002
-1.2231596 -0.74384379 2.5790002
-1.2186378 -0.74384379 2.5790002
-1.2230604 -0.74932379 2.598
-1.2185053 -0.74932379 2.598
-1.2232955 -0.75509226 2.618
-1.2187051 -0.75509226 2.618
-1.233129 -0.76691765 2.6590002
-1.2381688 -0.77297455 2.6800001
-1.23347 -0.77297455 2.6800001
-1.228771 -0.77297455 2.6800001
-1.2336638 -0.77903146 2.7010002
-1.2389377 -0.78537673 2.723
-1.2341634 -0.78537673 2.723
-1.2293891 -0.78537673 2.723
-1.2246147 -0.78537673 2.723
-1.229248 -0.79143363 2.7440002
-1.2244368 -0.79143363 2.7440002
-1.2196257 -0.79143363 2.7440002
-1.224997 -0.79806739 2.7670002
-1.2298467 -0.80441266 2.789
-1.2350584 -0.81104636 2.812
-1.230128 -0.81104636 2.812
-1.2352189 -0.81768012 2.835
-1.2302482 -0.81768012 2.835
-1.2356503 -0.82460237 2.8590002
-1.2306374 -0.82460237 2.8590002
-1.2256248 -0.82460237 2.8590002
-1.220612 -0.82460237 2.8590002
-1.2258035 -0.83152443 2.8830001
-1.2313344 -0.83873504 2.9080002
-1.2262359 -0.83873504 2.9080002
-1.2316351 -0.84594566 2.9330001
-1.2264925 -0.84594566 2.9330001
-1.2213501 -0.84594566 2.9330001
-1.2265741 -0.85315627 2.9580002
-1.2213879 -0.85315627 2.9580002
-1.2162014 -0.85315627 2.9580002
-1.2110151 -0.85315627 2.9580002
-1.2164276 -0.86065525 2.9840002
-1.2217491 -0.86815429 3.0100002
-1.2273834 -0.87594163 3.0370002
-1.232923 -0.8837291 3.0640001
-1.2387686 -0.89180499 3.0920002
-1.2333473 -0.89180499 3.0920002
-1.227926 -0.89180499 3.0920002
-1.2225046 -0.89180499 3.0920002
-1.2281047 -0.89988077 3.1200001
-1.2226343 -0.89988077 3.1200001
-1.2284774 -0.90824503 3.1490002
-1.2342187 -0.91660935 3.1780002
-1.2286465 -0.91660935 3.1780002
-1.2346202 -0.92526203 3.2080002
-1.2404886 -0.93391472 3.2380002
-1.2348113 -0.93391472 3.2380002
-1.2409015 -0.94285583 3.2690001
-1.2351698 -0.94285583 3.2690001
-1.2294382 -0.94285583 3.2690001
-1.2237065 -0.94285583 3.2690001
-1.2295251 -0.95179701 3.3000002
-1.223739 -0.95179701 3.3000002
-1.2301326 -0.96131492 3.3330002
-1.2242887 -0.96131492 3.3330002
-1.2301431 -0.97054458 3.3650002
-1.2366129 -0.98035085 3.3990002
-1.2306533 -0.98035085 3.3990002
-1.2246937 -0.98035085 3.3990002
-1.2309251 -0.99015731 3.4330001
-1.2249058 -0.99015731 3.4330001
-1.2188866 -0.99015731 3.4330001
-1.2252328 -1.0002521 3.4680002
-1.2191523 -1.0002521 3.4680002
-1.2253145 -1.0103469 3.5030003
-1.2191725 -1.0103469 3.5030003
-1.2254968 -1.0207301 3.5390003
-1.2192918 -1.0207301 3.5390003
-1.2257694 -1.0314019 3.5760002
-1.2324584 -1.0423619 3.6140001
-1.2393533 -1.0536104 3.6530001
-1.2461115 -1.064859 3.6920002
-1.2396382 -1.064859 3.6920002
-1.2331649 -1.064859 3.6920002
-1.2266916 -1.064859 3.6920002
-1.2334384 -1.0763959 3.7320001
-1.226895 -1.0763959 3.7320001
-1.2340854 -1.0885096 3.7740002
-1.2274684 -1.0885096 3.7740002
-1.2344379 -1.1006235 3.8160002
-1.2415818 -1.1130257 3.8590002
-1.2348157 -1.1130257 3.8590002
-1.2280495 -1.1130257 3.8590002
-1.2212836 -1.1130257 3.8590002
-1.2283651 -1.1257162 3.9030001
-1.221522 -1.1257162 3.9030001
-1.2146786 -1.1257162 3.9030001
-1.2359966 -1.1519629 3.9940002
-1.2434561 -1.1655188 4.0410004
-1.2510568 -1.179363 4.0890002
-1.2438874 -1.179363 4.0890002
-1.2367181 -1.179363 4.0890002
-1.2295487 -1.179363 4.0890002
-1.2373265 -1.1937842 4.1390004
-1.2300694 -1.1937842 4.1390004
-1.2378796 -1.2084937 4.1900001
-1.2305331 -1.2084937 4.1900001
-1.2231866 -1.2084937 4.1900001
-1.2306393 -1.2232033 4.2410002
-1.2232033 -1.2232033 4.2410002
-1.2312475 -1.2387782 4.2950001
-1.223717 -1.2387782 4.2950001
-1.2314774 -1.254353 4.349
-1.223852 -1.254353 4.349
-1.2318876 -1.2705048 4.4050002
-1.2402827 -1.2872334 4.4630003
-1.2324575 -1.2872334 4.4630003
-1.2408217 -1.3042504 4.5220003
-1.2328931 -1.3042504 4.5220003
-1.2249646 -1.3042504 4.5220003
-1.2331842 -1.3215557 4.5820003
-1.2251505 -1.3215557 4.5820003
-1.2171167 -1.3215557 4.5820003
-1.209083 -1.3215557 4.5820003
-1.2175629 -1.3397264 4.6450005
-1.2094188 -1.3397264 4.6450005
-1.2012745 -1.3397264 4.6450005
-1.2093126 -1.357897 4.7080002
-1.2178952 -1.376933 4.7740002
-1.2095248 -1.376933 4.7740002
-1.2182634 -1.3965456 4.842
-1.2097737 -1.3965456 4.842
-1.2184027 -1.416447 4.9110003
-1.2275288 -1.4372135 4.9830003
-1.218792 -1.4372135 4.9830003
-1.2277822 -1.4582684 5.0560002
-1.2189173 -1.4582684 5.0560002
-1.2100525 -1.4582684 5.0560002
-1.2192435 -1.4801886 5.1320004
-1.2102455 -1.4801886 5.1320004
-1.2012473 -1.4801886 5.1320004
-1.2103698 -1.5026854 5.21
-1.2199106 -1.5260479 5.2910004
-1.2106338 -1.5260479 5.2910004
-1.2013569 -1.5260479 5.2910004
-1.2107801 -1.549987 5.3740001
-1.2013576 -1.549987 5.3740001
-1.1919353 -1.549987 5.3740001
-1.2014365 -1.5747913 5.46
-1.1918634 -1.5747913 5.46
-1.2013454 -1.6001726 5.5480003
-1.211378 -1.6267076 5.6400003
-1.2014893 -1.6267076 5.6400003
-1.2114604 -1.6538194 5.7340002
-1.2014067 -1.6538194 5.7340002
-1.1913531 -1.6538194 5.7340002
-1.2014892 -1.6820848 5.8320003
-1.1912638 -1.6820848 5.8320003
-1.1810383 -1.6820848 5.8320003
-1.1910893 -1.7112156 5.9330001
-1.2015821 -1.7415 6.0380001
-1.2122985 -1.7726499 6.1460004
-1.2015226 -1.7726499 6.1460004
-1.2126395 -1.8052417 6.2590003
-1.2016654 -1.8052417 6.2590003
-1.1906914 -1.8052417 6.2590003
-1.1797172 -1.8052417 6.2590003
-1.1687431 -1.8052417 6.2590003
-1.157769 -1.8052417 6.2590003
-1.1467949 -1.8052417 6.2590003
-1.1153146 -1.7726499 6.1460004
-1.1248467 -1.8052417 6.2590003
-1.0937626 -1.7726499 6.1460004
-1.0829867 -1.7726499 6.1460004
-1.0722107 -1.7726499 6.1460004
-1.0614347 -1.7726499 6.1460004
-1.0506587 -1.7726499 6.1460004
-1.0398828 -1.7726499 6.1460004
-1.0291067 -1.7726499 6.1460004
-1.0183308 -1.7726499 6.1460004
-1.0075548 -1.7726499 6.1460004
-0.99677885 -1.7726499 6.1460004
-0.98600274 -1.7726499 6.1460004
-0.97522676 -1.7726499 6.1460004
-0.96445078 -1.7726499 6.1460004
-0.93691647 -1.7415 6.0380001
nan nan nan
nan nan nan
nan nan nan
nan nan nan
nan nan nan
nan nan nan
nan nan nan
nan nan nan
nan nan nan
nan nan nan
nan nan nan
nan nan nan
nan nan nan
nan nan nan
nan nan nan
nan nan nan
nan nan nan
nan nan nan
nan nan nan
nan nan nan
nan nan nan
nan nan nan
nan nan nan
nan nan nan
nan nan nan
nan nan nan
nan nan nan
nan nan nan
nan nan nan
nan nan nan
nan nan nan
nan nan nan
nan nan nan
nan nan nan
nan nan nan
nan nan nan
nan nan nan
nan nan nan
nan nan nan
nan nan nan
nan nan nan
nan nan nan
nan nan nan
nan nan nan
nan nan nan
nan nan nan
nan nan nan
nan nan nan
nan nan nan
nan nan nan
nan nan nan
-0.053181231 -0.2396798 0.83100003
-0.05172421 -0.2396798 0.83100003
-0.050388172 -0.24025664 0.83300006
-0.049045119 -0.24083349 0.83500004
-0.047581084 -0.24083349 0.83500004
-0.046117052 -0.24083349 0.83500004
-0.044653017 -0.24083349 0.83500004
-0.043188985 -0.24083349 0.83500004
-0.04172495 -0.24083349 0.83500004
-0.040164486 -0.24025664 0.83300006
-0.038703956 -0.24025664 0.83300006
-0.03724343 -0.24025664 0.83300006
-0.035696991 -0.2396798 0.83100003
-0.034157563 -0.23910296 0.82900006
-0.032704052 -0.23910296 0.82900006
-0.031250536 -0.23910296 0.82900006
-0.029725136 -0.23852609 0.82700002
-0.02827513 -0.23852609 0.82700002
-0.02676025 -0.23794925 0.82500005
-0.02531375 -0.23794925 0.82500005
-0.023867251 -0.23794925 0.82500005
-0.022420749 -0.23794925 0.82500005
-0.020974251 -0.23794925 0.82500005
-0.01952775 -0.23794925 0.82500005
-0.018081252 -0.23794925 0.82500005
-0.016675076 -0.23852609 0.82700002
-0.01522507 -0.23852609 0.82700002
-0.013808377 -0.23910296 0.82900006
-0.012354864 -0.23910296 0.82900006
-0.010927649 -0.2396798 0.83100003
-0.0094934236 -0.24025664 0.83300006
-0.0080328975 -0.24025664 0.83300006
-0.0065723704 -0.24025664 0.83300006
-0.0051241168 -0.24083349 0.83500004
-0.0036600833 -0.24083349 0.83500004
-0.0022013101 -0.24141033 0.83700001
-0.00073376996 -0.24141033 0.83700001
0.00073376996 -0.24141033 0.83700001
0.0022013101 -0.24141033 0.83700001
0.0036600833 -0.24083349 0.83500004
0.0051241168 -0.24083349 0.83500004
0.0065723704 -0.24025664 0.83300006
0.0080328975 -0.24025664 0.83300006
0.0094934236 -0.24025664 0.83300006
0.010953951 -0.24025664 0.83300006
0.012414477 -0.24025664 0.83300006
0.013875004 -0.24025664 0.83300006
0.015335531 -0.24025664 0.83300006
0.016796058 -0.24025664 0.83300006
0.018256582 -0.24025664 0.83300006
0.01971711 -0.24025664 0.83300006
0.021177636 -0.24025664 0.83300006
0.022692518 -0.24083349 0.83500004
0.02415655 -0.24083349 0.83500004
0.025620583 -0.24083349 0.83500004
0.027149489 -0.24141033 0.83700001
0.02861703 -0.24141033 0.83700001
0.030156458 -0.24198717 0.83900005
0.031778291 -0.24314088 0.84300005
0.033414152 -0.24429457 0.84700006
0.035064038 -0.24544825 0.85100001
0.036556125 -0.24544825 0.85100001
0.038048208 -0.24544825 0.85100001
0.039679687 -0.24631351 0.85400003
0.041177034 -0.24631351 0.85400003
0.042874262 -0.24746722 0.85800004
0.044585511 -0.24862093 0.86200005
0.045989931 -0.24804406 0.86000001
0.04760826 -0.24862093 0.86200005
0.049119633 -0.24862093 0.86200005
0.050748479 -0.24919777 0.86400002
0.052142382 -0.24862093 0.86200005
0.053653754 -0.24862093 0.86200005
0.055165127 -0.24862093 0.86200005
0.056544997 -0.24804406 0.86000001
0.058052864 -0.24804406 0.86000001
0.059560731 -0.24804406 0.86000001
0.061068602 -0.24804406 0.86000001
0.062576465 -0.24804406 0.86000001
0.064084329 -0.24804406 0.86000001
0.0655922 -0.24804406 0.86000001
nan nan nan
nan nan nan
nan nan nan
nan nan nan
nan nan nan
nan nan nan
nan nan nan
nan nan nan
nan nan nan
nan nan nan
nan nan nan
0.62035125 -1.8386989 6.3750005
0.63152879 -1.8386989 6.3750005
0.64270627 -1.8386989 6.3750005
0.65388376 -1.8386989 6.3750005
0.6650613 -1.8386989 6.3750005
0.67623878 -1.8386989 6.3750005
0.68741626 -1.8386989 6.3750005
0.6985938 -1.8386989 6.3750005
0.6968562 -1.8052417 6.2590003
0.72094876 -1.8386989 6.3750005
0.7321263 -1.8386989 6.3750005
0.72977853 -1.8052417 6.2590003
0.74075264 -1.8052417 6.2590003
0.75172675 -1.8052417 6.2590003
0.74893111 -1.7726499 6.1460004
0.77367496 -1.8052417 6.2590003
0.78464913 -1.8052417 6.2590003
0.79562324 -1.8052417 6.2590003
0.80659735 -1.8052417 6.2590003
0.81757146 -1.8052417 6.2590003
0.82854557 -1.8052417 6.2590003
0.83951968 -1.8052417 6.2590003
0.85049379 -1.8052417 6.2590003
0.8614679 -1.8052417 6.2590003
0.87244201 -1.8052417 6.2590003
0.88341612 -1.8052417 6.2590003
0.89439023 -1.8052417 6.2590003
0.90536439 -1.8052417 6.2590003
0.91633844 -1.8052417 6.2590003
0.92731255 -1.8052417 6.2590003
0.93828672 -1.8052417 6.2590003
0.94926077 -1.8052417 6.2590003
0.94289881 -1.7726499 6.1460004
0.95367479 -1.7726499 6.1460004
0.98218316 -1.8052417 6.2590003
0.97522676 -1.7726499 6.1460004
1.0041314 -1.8052417 6.2590003
1.0151055 -1.8052417 6.2590003
1.0260797 -1.8052417 6.2590003
1.0370537 -1.8052417 6.2590003
1.0480279 -1.8052417 6.2590003
1.0786288 -1.8386989 6.3750005
1.0898063 -1.8386989 6.3750005
1.1009839 -1.8386989 6.3750005
1.0919242 -1.8052417 6.2590003
1.1028984 -1.8052417 6.2590003
1.1138725 -1.8052417 6.2590003
1.1248467 -1.8052417 6.2590003
1.1153146 -1.7726499 6.1460004
1.1260906 -1.7726499 6.1460004
1.1368666 -1.7726499 6.1460004
1.1476425 -1.7726499 6.1460004
1.1584187 -1.7726499 6.1460004
1.1691946 -1.7726499 6.1460004
1.1799706 -1.7726499 6.1460004
1.1907465 -1.7726499 6.1460004
1.2015226 -1.7726499 6.1460004
1.2122985 -1.7726499 6.1460004
1.2230746 -1.7726499 6.1460004
1.2338505 -1.7726499 6.1460004
1.2446265 -1.7726499 6.1460004
1.2554024 -1.7726499 6.1460004
1.2661785 -1.7726499 6.1460004
1.2769544 -1.7726499 6.1460004
1.2877303 -1.7726499 6.1460004
1.2985064 -1.7726499 6.1460004
1.3092824 -1.7726499 6.1460004
1.3200585 -1.7726499 6.1460004
1.3308344 -1.7726499 6.1460004
1.318035 -1.7415 6.0380001
1.3523864 -1.7726499 6.1460004
1.3392082 -1.7415 6.0380001
1.3497949 -1.7415 6.0380001
1.3603815 -1.7415 6.0380001
1.3709681 -1.7415 6.0380001
1.3815547 -1.7415 6.0380001
1.3921413 -1.7415 6.0380001
1.4027281 -1.7415 6.0380001
1.4133146 -1.7415 6.0380001
1.4239013 -1.7415 6.0380001
1.4344878 -1.7415 6.0380001
1.4450744 -1.7415 6.0380001
1.4556612 -1.7415 6.0380001
1.4662477 -1.7415 6.0380001
1.4768344 -1.7415 6.0380001
1.4874209 -1.7415 6.0380001
1.4980077 -1.7415 6.0380001
1.5085943 -1.7415 6.0380001
1.5191809 -1.7415 6.0380001
1.5297675 -1.7415 6.0380001
1.567906 -1.7726499 6.1460004
1.5509408 -1.7415 6.0380001
1.5343726 -1.7112156 5.9330001
1.572114 -1.7415 6.0380001
1.5287032 -1.6820848 5.8320003
nan nan nan
nan nan nan
nan nan nan
nan nan nan
nan nan nan
nan nan nan
nan nan nan
1.6383979 -1.7112156 5.9330001
1.6207323 -1.6820848 5.8320003
1.6309577 -1.6820848 5.8320003
1.641183 -1.6820848 5.8320003
1.6514086 -1.6820848 5.8320003
1.661634 -1.6820848 5.8320003
1.6437658 -1.6538194 5.7340002
1.6538194 -1.6538194 5.7340002
1.6638731 -1.6538194 5.7340002
1.6739267 -1.6538194 5.7340002
1.6839802 -1.6538194 5.7340002
1.6940339 -1.6538194 5.7340002
1.7040874 -1.6538194 5.7340002
1.714141 -1.6538194 5.7340002
1.6959293 -1.6267076 5.6400003
nan nan nan
nan nan nan
nan nan nan
nan nan nan
nan nan nan
nan nan nan
nan nan nan
nan nan nan
nan nan nan
nan nan nan
nan nan nan
0.67661226 -0.60655427 2.1030002
0.67609411 -0.60280478 2.0900002
0.67975861 -0.60280478 2.0900002
0.68342304 -0.60280478 2.0900002
0.68314248 -0.59934372 2.0780001
0.68248934 -0.59559417 2.0650001
0.68212301 -0.59213316 2.0530002
0.68138039 -0.58838367 2.0400002
0.68495721 -0.58838367 2.0400002
0.68448377 -0.58492255 2.0280001
0.6880396 -0.58492255 2.0280001
0.68750298 -0.58146143 2.016
0.68726718 -0.57828879 2.0050001
0.68664831 -0.57482767 1.9930001
0.69014269 -0.57482767 1.9930001
0.69363713 -0.57482767 1.9930001
0.69713145 -0.57482767 1.9930001
0.7006259 -0.57482767 1.9930001
0.70412028 -0.57482767 1.9930001
0.70761466 -0.57482767 1.9930001
0.71110904 -0.57482767 1.9930001
0.7189061 -0.57828879 2.0050001
0.72242159 -0.57828879 2.0050001
0.72159225 -0.57482767 1.9930001
0.72508663 -0.57482767 1.9930001
0.72858101 -0.57482767 1.9930001
0.73207545 -0.57482767 1.9930001
0.73556978 -0.57482767 1.9930001
0.73906422 -0.57482767 1.9930001
0.7425586 -0.57482767 1.9930001
0.74605298 -0.57482767 1.9930001
0.75406045 -0.57828879 2.0050001
0.75757587 -0.57828879 2.0050001
0.75653619 -0.57482767 1.9930001
0.76003057 -0.57482767 1.9930001
0.76352495 -0.57482767 1.9930001
0.76701933 -0.57482767 1.9930001
0.77051377 -0.57482767 1.9930001
0.77400815 -0.57482767 1.9930001
0.77750254 -0.57482767 1.9930001
0.78099698 -0.57482767 1.9930001
0.7844913 -0.57482767 1.9930001
0.78324115 -0.57136661 1.9810001
0.78671449 -0.57136661 1.9810001
0.7901879 -0.57136661 1.9810001
0.79366124 -0.57136661 1.9810001
0.79713458 -0.57136661 1.9810001
0.80545771 -0.57482767 1.9930001
0.80895209 -0.57482767 1.9930001
0.81244648 -0.57482767 1.9930001
0.81594086 -0.57482767 1.9930001
0.81943524 -0.57482767 1.9930001
0.82292962 -0.57482767 1.9930001
0.82642406 -0.57482767 1.9930001
0.82492143 -0.57136661 1.9810001
0.82839477 -0.57136661 1.9810001
0.83186811 -0.57136661 1.9810001
0.83534145 -0.57136661 1.9810001
0.83881485 -0.57136661 1.9810001
0.8422882 -0.57136661 1.9810001
0.8508848 -0.57482767 1.9930001
0.85437924 -0.57482767 1.9930001
0.85787356 -0.57482767 1.9930001
0.861368 -0.57482767 1.9930001
0.86486238 -0.57482767 1.9930001
0.86835676 -0.57482767 1.9930001
0.87185115 -0.57482767 1.9930001
0.87007499 -0.57136661 1.9810001
0.87354839 -0.57136661 1.9810001
0.87702173 -0.57136661 1.9810001
0.88049501 -0.57136661 1.9810001
0.88396841 -0.57136661 1.9810001
0.88744175 -0.57136661 1.9810001
0.89631188 -0.57482767 1.9930001
0.8943885 -0.57136661 1.9810001
0.9033007 -0.57482767 1.9930001
0.90679508 -0.57482767 1.9930001
0.91028947 -0.57482767 1.9930001
0.91378391 -0.57482767 1.9930001
0.91727829 -0.57482767 1.9930001
0.92077261 -0.57482767 1.9930001
0.92426711 -0.57482767 1.9930001
0.92776144 -0.57482767 1.9930001
0.93686301 -0.57828879 2.0050001
0.94037843 -0.57828879 2.0050001
0.94389385 -0.57828879 2.0050001
0.94740933 -0.57828879 2.0050001
0.95092475 -0.57828879 2.0050001
0.95444018 -0.57828879 2.0050001
0.9579556 -0.57828879 2.0050001
0.96147108 -0.57828879 2.0050001
0.9649865 -0.57828879 2.0050001
0.96850187 -0.57828879 2.0050001
0.97201729 -0.57828879 2.0050001
0.97553271 -0.57828879 2.0050001
0.97904819 -0.57828879 2.0050001
0.9766829 -0.57482767 1.9930001
0.9801774 -0.57482767 1.9930001
0.98367172 -0.57482767 1.9930001
0.99310994 -0.57828879 2.0050001
0.99066061 -0.57482767 1.9930001
1.0001408 -0.57828879 2.0050001
1.0036563 -0.57828879 2.0050001
1.0071718 -0.57828879 2.0050001
1.0106871 -0.57828879 2.0050001
1.0142025 -0.57828879 2.0050001
1.017718 -0.57828879 2.0050001
1.0212333 -0.57828879 2.0050001
1.0303708 -0.58146143 2.016
1.0282643 -0.57828879 2.0050001
1.0317796 -0.57828879 2.0050001
1.0352951 -0.57828879 2.0050001
1.0388106 -0.57828879 2.0050001
1.042326 -0.57828879 2.0050001
1.0458415 -0.57828879 2.0050001
1.0493569 -0.57828879 2.0050001
1.0528723 -0.57828879 2.0050001
1.0563878 -0.57828879 2.0050001
1.0599031 -0.57828879 2.0050001
1.0634185 -0.57828879 2.0050001
1.0605484 -0.57482767 1.9930001
1.0704495 -0.57828879 2.0050001
1.0739648 -0.57828879 2.0050001
1.0710316 -0.57482767 1.9930001
1.074526 -0.57482767 1.9930001
1.0715295 -0.57136661 1.9810001
1.0690336 -0.56819397 1.9700001
1.0724877 -0.56819397 1.9700001
1.0819496 -0.57136661 1.9810001
nan nan nan
nan nan nan
nan nan nan
nan nan nan
nan nan nan
nan nan nan
nan nan nan
nan nan nan
-1.1567923 -0.59197354 2.0650001
-1.1531717 -0.59197354 2.0650001
-1.149551 -0.59197354 2.0650001
-1.1531445 -0.59570026 2.0780001
-1.1495011 -0.59570026 2.0780001
-1.1524748 -0.59914035 2.0900002
-1.155956 -0.60286701 2.1030002
-1.1522688 -0.60286701 2.1030002
-1.1485815 -0.60286701 2.1030002
-1.1448942 -0.60286701 2.1030002
-1.1482615 -0.60659373 2.1160002
-1.1445515 -0.60659373 2.1160002
-1.1408415 -0.60659373 2.1160002
-1.1371315 -0.60659373 2.1160002
-1.1334213 -0.60659373 2.1160002
-1.1297114 -0.60659373 2.1160002
-1.132919 -0.61032045 2.1290002
-1.1291863 -0.61032045 2.1290002
-1.1254534 -0.61032045 2.1290002
-1.2123432 -0.65962768 2.3010001
-1.2251128 -0.66880113 2.3330002
-1.2126484 -0.66421443 2.3170002
-1.2085859 -0.66421443 2.3170002
-1.2128412 -0.66880113 2.3330002
-1.2170404 -0.67338783 2.3490002
-1.2211834 -0.67797452 2.365
-1.2252705 -0.68256128 2.381
-1.2298142 -0.68743461 2.398
-1.2342985 -0.69230807 2.4150002
-1.2300642 -0.69230807 2.4150002
-1.22583 -0.69230807 2.4150002
-1.2215955 -0.69230807 2.4150002
-1.2173613 -0.69230807 2.4150002
-1.213127 -0.69230807 2.4150002
-1.2174025 -0.69718146 2.4320002
-1.2131383 -0.69718146 2.4320002
-1.2088742 -0.69718146 2.4320002
-1.2135258 -0.7023415 2.45
-1.2176207 -0.70721483 2.467
-1.2221478 -0.71237493 2.4850001
-1.2177908 -0.71237493 2.4850001
-1.2222232 -0.71753502 2.503
-1.2178346 -0.71753502 2.503
-1.213446 -0.71753502 2.503
-1.2182353 -0.72298175 2.5220001
-1.2229578 -0.72842848 2.5410001
-1.2185028 -0.72842848 2.5410001
-1.2231253 -0.73387522 2.5600002
-1.2186369 -0.73387522 2.5600002
-1.2231596 -0.73932195 2.5790002
-1.2186378 -0.73932195 2.5790002
-1.2230604 -0.74476862 2.598
-1.2185053 -0.74476862 2.598
-1.2232955 -0.75050205 2.618
-1.2187051 -0.75050205 2.618
-1.2238539 -0.75652218 2.6390002
-1.2284669 -0.76225555 2.6590002
-1.2238048 -0.76225555 2.6590002
-1.228771 -0.76827562 2.6800001
-1.2336638 -0.77429569 2.7010002
-1.2389377 -0.7806024 2.723
-1.2341634 -0.7806024 2.723
-1.2293891 -0.7806024 2.723
-1.2246147 -0.7806024 2.723
-1.229248 -0.78662252 2.7440002
-1.2244368 -0.78662252 2.7440002
-1.2196257 -0.78662252 2.7440002
-1.224997 -0.79321593 2.7670002
-1.2298467 -0.79952258 2.789
-1.2350584 -0.80611598 2.812
-1.230128 -0.80611598 2.812
-1.2352189 -0.81270939 2.835
-1.2302482 -0.81270939 2.835
-1.2356503 -0.81958956 2.8590002
-1.2306374 -0.81958956 2.8590002
-1.2256248 -0.81958956 2.8590002
-1.220612 -0.81958956 2.8590002
-1.2258035 -0.8264696 2.8830001
-1.2313344 -0.8336364 2.9080002
-1.2262359 -0.8336364 2.9080002
-1.2316351 -0.84080309 2.9330001
-1.2264925 -0.84080309 2.9330001
-1.2213501 -0.84080309 2.9330001
-1.2265741 -0.84796989 2.9580002
-1.2213879 -0.84796989 2.9580002
-1.2162014 -0.84796989 2.9580002
-1.2110151 -0.84796989 2.9580002
-1.2270266 -0.86287671 3.0100002
-1.2327082 -0.87061679 3.0370002
-1.2273834 -0.87061679 3.0370002
-1.232923 -0.87835687 3.0640001
-1.2275507 -0.87835687 3.0640001
-1.2333473 -0.88638371 3.0920002
-1.227926 -0.88638371 3.0920002
-1.2225046 -0.88638371 3.0920002
-1.2281047 -0.89441043 3.1200001
-1.2226343 -0.89441043 3.1200001
-1.2284774 -0.90272379 3.1490002
-1.2342187 -0.91103727 3.1780002
-1.2286465 -0.91103727 3.1780002
-1.2346202 -0.91963744 3.2080002
-1.2404886 -0.92823744 3.2380002
-1.2348113 -0.92823744 3.2380002
-1.2409015 -0.93712419 3.2690001
-1.2351698 -0.93712419 3.2690001
-1.2294382 -0.93712419 3.2690001
-1.235311 -0.94601107 3.3000002
-1.2295251 -0.94601107 3.3000002
-1.223739 -0.94601107 3.3000002
-1.2301326 -0.95547116 3.3330002
-1.2242887 -0.95547116 3.3330002
-1.2301431 -0.96464461 3.3650002
-1.2366129 -0.97439128 3.3990002
-1.2306533 -0.97439128 3.3990002
-1.2246937 -0.97439128 3.3990002
-1.2187341 -0.97439128 3.3990002
-1.2249058 -0.98413813 3.4330001
-1.2188866 -0.98413813 3.4330001
-1.2128674 -0.98413813 3.4330001
-1.2191523 -0.9941715 3.4680002
-1.2130717 -0.9941715 3.4680002
-1.2191725 -1.004205 3.5030003
-1.2254968 -1.0145252 3.5390003
-1.2192918 -1.0145252 3.5390003
-1.2257694 -1.0251319 3.5760002
-1.2324584 -1.0360254 3.6140001
-1.2393533 -1.0472054 3.6530001
-1.2329483 -1.0472054 3.6530001
-1.2396382 -1.0583856 3.6920002
-1.2331649 -1.0583856 3.6920002
-1.2266916 -1.0583856 3.6920002
-1.2334384 -1.0698524 3.7320001
-1.226895 -1.0698524 3.7320001
-1.2203515 -1.0698524 3.7320001
-1.2274684 -1.0818926 3.7740002
-1.2344379 -1.0939327 3.8160002
-1.2415818 -1.1062596 3.8590002
-1.2348157 -1.1062596 3.8590002
-1.2280495 -1.1062596 3.8590002
-1.2212836 -1.1062596 3.8590002
-1.2283651 -1.118873 3.9030001
-1.221522 -1.118873 3.9030001
-1.2146786 -1.118873 3.9030001
-1.2359966 -1.14496 3.9940002
-1.2434561 -1.1584336 4.0410004
-1.2510568 -1.1721936 4.0890002
-1.2438874 -1.1721936 4.0890002
-1.2367181 -1.1721936 4.0890002
-1.2295487 -1.1721936 4.0890002
-1.2373265 -1.1865271 4.1390004
-1.2300694 -1.1865271 4.1390004
-1.2378796 -1.2011472 4.1900001
-1.2155554 -1.1865271 4.1390004
-1.2231866 -1.2011472 4.1900001
-1.2306393 -1.2157674 4.2410002
-1.2232033 -1.2157674 4.2410002
-1.2312475 -1.2312475 4.2950001
-1.223717 -1.2312475 4.2950001
-1.2161865 -1.2312475 4.2950001
-1.223852 -1.2467278 4.349
-1.2318876 -1.2627814 4.4050002
-1.2402827 -1.2794082 4.4630003
-1.2324575 -1.2794082 4.4630003
-1.2408217 -1.2963217 4.5220003
-1.2328931 -1.2963217 4.5220003
-1.2249646 -1.2963217 4.5220003
-1.2170361 -1.2963217 4.5220003
-1.2091074 -1.2963217 4.5220003
-1.2011789 -1.2963217 4.5220003
-1.209083 -1.313522 4.5820003
-1.2010491 -1.313522 4.5820003
-1.2094188 -1.3315822 4.6450005
-1.2012745 -1.3315822 4.6450005
-1.2093126 -1.3496424 4.7080002
-1.2178952 -1.3685626 4.7740002
-1.2095248 -1.3685626 4.7740002
-1.2182634 -1.388056 4.842
-1.2097737 -1.388056 4.842
-1.2184027 -1.4078364 4.9110003
-1.2097921 -1.4078364 4.9110003
-1.218792 -1.4284766 4.9830003
-1.2100552 -1.4284766 4.9830003
-1.2189173 -1.4494035 5.0560002
-1.2100525 -1.4494035 5.0560002
-1.2192435 -1.4711906 5.1320004
-1.2102455 -1.4711906 5.1320004
-1.2012473 -1.4711906 5.1320004
-1.2103698 -1.4935507 5.21
-1.2012349 -1.4935507 5.21
-1.2106338 -1.516771 5.2910004
-1.2013569 -1.516771 5.2910004
-1.2107801 -1.5405645 5.3740001
-1.2013576 -1.5405645 5.3740001
-1.1919353 -1.5405645 5.3740001
-1.2014365 -1.5652182 5.46
-1.1918634 -1.5652182 5.46
-1.2013454 -1.5904453 5.5480003
-1.211378 -1.6168189 5.6400003
-1.2014893 -1.6168189 5.6400003
-1.2114604 -1.6437658 5.7340002
-1.2014067 -1.6437658 5.7340002
-1.1913531 -1.6437658 5.7340002
-1.2014892 -1.6718595 5.8320003
-1.1912638 -1.6718595 5.8320003
-1.2014918 -1.7008131 5.9330001
-1.1910893 -1.7008131 5.9330001
-1.2015821 -1.7309134 6.0380001
-1.2122985 -1.7618738 6.1460004
-1.2236136 -1.7942675 6.2590003
-1.2126395 -1.7942675 6.2590003
-1.2016654 -1.7942675 6.2590003
-1.1906914 -1.7942675 6.2590003
-1.1797172 -1.7942675 6.2590003
-1.1687431 -1.7942675 6.2590003
-1.157769 -1.7942675 6.2590003
-1.1467949 -1.7942675 6.2590003
-1.1153146 -1.7618738 6.1460004
-1.1045387 -1.7618738 6.1460004
-1.0937626 -1.7618738 6.1460004
-1.0829867 -1.7618738 6.1460004
-1.0722107 -1.7618738 6.1460004
-1.0614347 -1.7618738 6.1460004
-1.0506587 -1.7618738 6.1460004
-1.0398828 -1.7618738 6.1460004
-1.0291067 -1.7618738 6.1460004
-1.0183308 -1.7618738 6.1460004
-1.0075548 -1.7618738 6.1460004
-0.99677885 -1.7618738 6.1460004
-0.98600274 -1.7618738 6.1460004
-0.97522676 -1.7618738 6.1460004
-0.96445078 -1.7618738 6.1460004
nan nan nan
nan nan nan
nan nan nan
nan nan nan
nan nan nan
nan nan nan
nan nan nan
nan nan nan
nan nan nan
nan nan nan
nan nan nan
nan nan nan
nan nan nan
nan nan nan
nan nan nan
nan nan nan
nan nan nan
nan nan nan
nan nan nan
nan nan nan
nan nan nan
nan nan nan
nan nan nan
nan nan nan
nan nan nan
nan nan nan
nan nan nan
nan nan nan
nan nan nan
nan nan nan
nan nan nan
nan nan nan
nan nan nan
nan nan nan
nan nan nan
nan nan nan
nan nan nan
nan nan nan
nan nan nan
nan nan nan
nan nan nan
nan nan nan
nan nan nan
nan nan nan
nan nan nan
nan nan nan
nan nan nan
nan nan nan
nan nan nan
nan nan nan
nan nan nan
nan nan nan
-0.053309225 -0.23879611 0.83300006
-0.051848698 -0.23879611 0.83300006
-0.050509151 -0.23936945 0.83500004
-0.049045119 -0.23936945 0.83500004
-0.047581084 -0.23936945 0.83500004
-0.046117052 -0.23936945 0.83500004
-0.044653017 -0.23936945 0.83500004
-0.043188985 -0.23936945 0.83500004
-0.04172495 -0.23936945 0.83500004
-0.040260918 -0.23936945 0.83500004
-0.038703956 -0.23879611 0.83300006
-0.03724343 -0.23879611 0.83300006
-0.035782903 -0.23879611 0.83300006
-0.03423997 -0.23822276 0.83100003
-0.032704052 -0.23764943 0.82900006
-0.031250536 -0.23764943 0.82900006
-0.029725136 -0.23707609 0.82700002
-0.02827513 -0.23707609 0.82700002
-0.02676025 -0.23650277 0.82500005
-0.02531375 -0.23650277 0.82500005
-0.023867251 -0.23650277 0.82500005
-0.022420749 -0.23650277 0.82500005
-0.020974251 -0.23650277 0.82500005
-0.019480409 -0.2359294 0.82300001
-0.018081252 -0.23650277 0.82500005
-0.016675076 -0.23707609 0.82700002
-0.01522507 -0.23707609 0.82700002
-0.013808377 -0.23764943 0.82900006
-0.012354864 -0.23764943 0.82900006
-0.010927649 -0.23822276 0.83100003
-0.0095162168 -0.23936945 0.83500004
-0.0080328975 -0.23879611 0.83300006
-0.0065881498 -0.23936945 0.83500004
-0.0051609366 -0.24108948 0.84100002
-0.0036863831 -0.24108948 0.84100002
-0.0022118299 -0.24108948 0.84100002
-0.00073727663 -0.24108948 0.84100002
0.00073552335 -0.24051614 0.83900005
0.0022013101 -0.23994279 0.83700001
0.0036688498 -0.23994279 0.83700001
0.0051363898 -0.23994279 0.83700001
0.0065881498 -0.23936945 0.83500004
0.0080521833 -0.23936945 0.83500004
0.0095162168 -0.23936945 0.83500004
0.01098025 -0.23936945 0.83500004
0.012414477 -0.23879611 0.83300006
0.013875004 -0.23879611 0.83300006
0.015335531 -0.23879611 0.83300006
0.016836384 -0.23936945 0.83500004
0.018256582 -0.23879611 0.83300006
0.01971711 -0.23879611 0.83300006
0.021177636 -0.23879611 0.83300006
0.022638164 -0.23879611 0.83300006
0.02415655 -0.23936945 0.83500004
0.025620583 -0.23936945 0.83500004
0.027149489 -0.23994279 0.83700001
0.02868541 -0.24051614 0.83900005
0.030156458 -0.24051614 0.83900005
0.031853683 -0.24223614 0.84500003
0.033493049 -0.24338283 0.84900004
0.035064038 -0.24395616 0.85100001
0.036684994 -0.24481617 0.85400003
0.038182341 -0.24481617 0.85400003
0.039772615 -0.24538952 0.85600007
0.041273467 -0.24538952 0.85600007
0.042874262 -0.24596286 0.85800004
0.044585511 -0.24710955 0.86200005
0.046096887 -0.24710955 0.86200005
0.04760826 -0.24710955 0.86200005
0.049119633 -0.24710955 0.86200005
0.050631005 -0.24710955 0.86200005
0.052142382 -0.24710955 0.86200005
0.053653754 -0.24710955 0.86200005
0.055165127 -0.24710955 0.86200005
0.056544997 -0.2465362 0.86000001
0.058052864 -0.2465362 0.86000001
0.059560731 -0.2465362 0.86000001
0.060926579 -0.24596286 0.85800004
0.062430941 -0.24596286 0.85800004
0.064084329 -0.2465362 0.86000001
0.065744743 -0.24710955 0.86200005
0.06741216 -0.24768288 0.86400002
nan nan nan
0.071012631 -0.24968958 0.87100005
0.072539784 -0.24968958 0.87100005
nan nan nan
nan nan nan
nan nan nan
nan nan nan
nan nan nan
nan nan nan
nan nan nan
nan nan nan
0.63152879 -1.8275214 6.3750005
0.64270627 -1.8275214 6.3750005
0.66639727 -1.8624949 6.4970002
0.6650613 -1.8275214 6.3750005
0.67623878 -1.8275214 6.3750005
0.68741626 -1.8275214 6.3750005
0.6985938 -1.8275214 6.3750005
0.6968562 -1.7942675 6.2590003
0.72094876 -1.8275214 6.3750005
0.7321263 -1.8275214 6.3750005
0.74330378 -1.8275214 6.3750005
0.74075264 -1.7942675 6.2590003
0.7656588 -1.8275214 6.3750005
0.76270086 -1.7942675 6.2590003
0.77367496 -1.7942675 6.2590003
0.78464913 -1.7942675 6.2590003
0.79562324 -1.7942675 6.2590003
0.80659735 -1.7942675 6.2590003
0.81757146 -1.7942675 6.2590003
0.82854557 -1.7942675 6.2590003
0.83951968 -1.7942675 6.2590003
0.85049379 -1.7942675 6.2590003
0.8614679 -1.7942675 6.2590003
0.87244201 -1.7942675 6.2590003
0.88341612 -1.7942675 6.2590003
0.89439023 -1.7942675 6.2590003
0.90536439 -1.7942675 6.2590003
0.91633844 -1.7942675 6.2590003
0.92731255 -1.7942675 6.2590003
0.9213469 -1.7618738 6.1460004
0.93212283 -1.7618738 6.1460004
0.94289881 -1.7618738 6.1460004
0.95367479 -1.7618738 6.1460004
0.98218316 -1.7942675 6.2590003
0.97522676 -1.7618738 6.1460004
1.0041314 -1.7942675 6.2590003
1.0151055 -1.7942675 6.2590003
1.0260797 -1.7942675 6.2590003
1.0562738 -1.8275214 6.3750005
1.0480279 -1.7942675 6.2590003
1.0786288 -1.8275214 6.3750005
1.0898063 -1.8275214 6.3750005
1.1009839 -1.8275214 6.3750005
1.0919242 -1.7942675 6.2590003
1.1028984 -1.7942675 6.2590003
1.1138725 -1.7942675 6.2590003
1.1248467 -1.7942675 6.2590003
1.1358207 -1.7942675 6.2590003
1.1467949 -1.7942675 6.2590003
1.1368666 -1.7618738 6.1460004
1.1476425 -1.7618738 6.1460004
1.1584187 -1.7618738 6.1460004
1.1691946 -1.7618738 6.1460004
1.1799706 -1.7618738 6.1460004
1.1907465 -1.7618738 6.1460004
1.2015226 -1.7618738 6.1460004
1.2122985 -1.7618738 6.1460004
1.2230746 -1.7618738 6.1460004
1.2338505 -1.7618738 6.1460004
1.2446265 -1.7618738 6.1460004
1.2554024 -1.7618738 6.1460004
1.2661785 -1.7618738 6.1460004
1.2769544 -1.7618738 6.1460004
1.2877303 -1.7618738 6.1460004
1.2985064 -1.7618738 6.1460004
1.3092824 -1.7618738 6.1460004
1.3200585 -1.7618738 6.1460004
1.3308344 -1.7618738 6.1460004
1.318035 -1.7309134 6.0380001
1.3523864 -1.7618738 6.1460004
1.3392082 -1.7309134 6.0380001
1.3497949 -1.7309134 6.0380001
1.3603815 -1.7309134 6.0380001
1.3709681 -1.7309134 6.0380001
1.3815547 -1.7309134 6.0380001
1.3921413 -1.7309134 6.0380001
1.4278182 -1.7618738 6.1460004
1.4385942 -1.7618738 6.1460004
1.4493701 -1.7618738 6.1460004
1.4344878 -1.7309134 6.0380001
1.4450744 -1.7309134 6.0380001
1.4556612 -1.7309134 6.0380001
1.4662477 -1.7309134 6.0380001
1.4768344 -1.7309134 6.0380001
1.4874209 -1.7309134 6.0380001
1.4980077 -1.7309134 6.0380001
1.5085943 -1.7309134 6.0380001
1.5191809 -1.7309134 6.0380001
1.5297675 -1.7309134 6.0380001
1.567906 -1.7618738 6.1460004
1.5786821 -1.7618738 6.1460004
1.5615275 -1.7309134 6.0380001
1.572114 -1.7309134 6.0380001
1.5551777 -1.7008131 5.9330001
nan nan nan
nan nan nan
nan nan nan
nan nan nan
nan nan nan
nan nan nan
nan nan nan
nan nan nan
1.6207323 -1.6718595 5.8320003
1.6309577 -1.6718595 5.8320003
1.641183 -1.6718595 5.8320003
1.6236585 -1.6437658 5.7340002
1.661634 -1.6718595 5.8320003
1.6718595 -1.6718595 5.8320003
1.6538194 -1.6437658 5.7340002
1.6638731 -1.6437658 5.7340002
1.6739267 -1.6437658 5.7340002
1.6839802 -1.6437658 5.7340002
1.6940339 -1.6437658 5.7340002
nan nan nan
nan nan nan
nan nan nan
nan nan nan
nan nan nan
nan nan nan
nan nan nan
nan nan nan
nan nan nan
nan nan nan
nan nan nan
nan nan nan
nan nan nan
nan nan nan
0.67661226 -0.60286701 2.1030002
0.67609411 -0.59914035 2.0900002
0.67975861 -0.59914035 2.0900002
0.68342304 -0.59914035 2.0900002
0.68314248 -0.59570026 2.0780001
0.68248934 -0.59197354 2.0650001
0.68212301 -0.58853352 2.0530002
0.68138039 -0.58480686 2.0400002
0.68495721 -0.58480686 2.0400002
0.68448377 -0.58136678 2.0280001
0.6880396 -0.58136678 2.0280001
0.68375182 -0.57477331 2.0050001
0.68726718 -0.57477331 2.0050001
0.68664831 -0.57133335 1.9930001
0.69014269 -0.57133335 1.9930001
0.69363713 -0.57133335 1.9930001
0.69713145 -0.57133335 1.9930001
0.7006259 -0.57133335 1.9930001
0.70412028 -0.57133335 1.9930001
0.70761466 -0.57133335 1.9930001
0.71110904 -0.57133335 1.9930001
0.71460348 -0.57133335 1.9930001
0.71809787 -0.57133335 1.9930001
0.72159225 -0.57133335 1.9930001
0.72508663 -0.57133335 1.9930001
0.72858101 -0.57133335 1.9930001
0.73207545 -0.57133335 1.9930001
0.73556978 -0.57133335 1.9930001
0.74351418 -0.57477331 2.0050001
0.7425586 -0.57133335 1.9930001
0.74605298 -0.57133335 1.9930001
0.75406045 -0.57477331 2.0050001
0.75757587 -0.57477331 2.0050001
0.75653619 -0.57133335 1.9930001
0.76003057 -0.57133335 1.9930001
0.76352495 -0.57133335 1.9930001
0.76701933 -0.57133335 1.9930001
0.77051377 -0.57133335 1.9930001
0.77400815 -0.57133335 1.9930001
0.77750254 -0.57133335 1.9930001
0.78099698 -0.57133335 1.9930001
0.7844913 -0.57133335 1.9930001
0.78798574 -0.57133335 1.9930001
0.78671449 -0.56789327 1.9810001
0.7901879 -0.56789327 1.9810001
0.79366124 -0.56789327 1.9810001
0.79713458 -0.56789327 1.9810001
0.80545771 -0.57133335 1.9930001
0.80895209 -0.57133335 1.9930001
0.81244648 -0.57133335 1.9930001
0.81594086 -0.57133335 1.9930001
0.81943524 -0.57133335 1.9930001
0.82292962 -0.57133335 1.9930001
0.82642406 -0.57133335 1.9930001
0.82492143 -0.56789327 1.9810001
0.83341283 -0.57133335 1.9930001
0.83186811 -0.56789327 1.9810001
0.84040159 -0.57133335 1.9930001
0.84389603 -0.57133335 1.9930001
0.8422882 -0.56789327 1.9810001
0.8508848 -0.57133335 1.9930001
0.85437924 -0.57133335 1.9930001
0.85787356 -0.57133335 1.9930001
0.861368 -0.57133335 1.9930001
0.86486238 -0.57133335 1.9930001
0.86835676 -0.57133335 1.9930001
0.87185115 -0.57133335 1.9930001
0.87534559 -0.57133335 1.9930001
0.87354839 -0.56789327 1.9810001
0.87702173 -0.56789327 1.9810001
0.88049501 -0.56789327 1.9810001
0.88396841 -0.56789327 1.9810001
0.88744175 -0.56789327 1.9810001
0.89631188 -0.57133335 1.9930001
0.8943885 -0.56789327 1.9810001
0.9033007 -0.57133335 1.9930001
0.90679508 -0.57133335 1.9930001
0.91028947 -0.57133335 1.9930001
0.91378391 -0.57133335 1.9930001
0.91727829 -0.57133335 1.9930001
0.92077261 -0.57133335 1.9930001
0.92426711 -0.57133335 1.9930001
0.92776144 -0.57133335 1.9930001
0.93686301 -0.57477331 2.0050001
0.94037843 -0.57477331 2.0050001
0.94389385 -0.57477331 2.0050001
0.94740933 -0.57477331 2.0050001
0.95092475 -0.57477331 2.0050001
0.95444018 -0.57477331 2.0050001
0.9579556 -0.57477331 2.0050001
0.96147108 -0.57477331 2.0050001
0.9649865 -0.57477331 2.0050001
0.96850187 -0.57477331 2.0050001
0.97201729 -0.57477331 2.0050001
0.97553271 -0.57477331 2.0050001
0.97904819 -0.57477331 2.0050001
0.9766829 -0.57133335 1.9930001
0.9801774 -0.57133335 1.9930001
0.98367172 -0.57133335 1.9930001
0.99310994 -0.57477331 2.0050001
0.99662536 -0.57477331 2.0050001
1.0001408 -0.57477331 2.0050001
1.0036563 -0.57477331 2.0050001
1.0071718 -0.57477331 2.0050001
1.0106871 -0.57477331 2.0050001
1.0142025 -0.57477331 2.0050001
1.011627 -0.57133335 1.9930001
1.0212333 -0.57477331 2.0050001
1.0303708 -0.5779267 2.016
1.0282643 -0.57477331 2.0050001
1.0317796 -0.57477331 2.0050001
1.0352951 -0.57477331 2.0050001
1.0388106 -0.57477331 2.0050001
1.042326 -0.57477331 2.0050001
1.0458415 -0.57477331 2.0050001
1.0493569 -0.57477331 2.0050001
1.0528723 -0.57477331 2.0050001
1.0563878 -0.57477331 2.0050001
1.0599031 -0.57477331 2.0050001
1.0634185 -0.57477331 2.0050001
1.0605484 -0.57133335 1.9930001
1.0704495 -0.57477331 2.0050001
1.0739648 -0.57477331 2.0050001
1.0710316 -0.57133335 1.9930001
1.074526 -0.57133335 1.9930001
1.0715295 -0.56789327 1.9810001
1.0690336 -0.56473994 1.9700001
1.0724877 -0.56473994 1.9700001
1.0759418 -0.56473994 1.9700001
nan nan nan
nan nan nan
nan nan nan
nan nan nan
nan nan nan
nan nan nan
nan nan nan
nan nan nan
-1.1567923 -0.58835292 2.0650001
-1.1531717 -0.58835292 2.0650001
-1.156788 -0.59205681 2.0780001
-1.1531445 -0.59205681 2.0780001
-1.1495011 -0.59205681 2.0780001
-1.1524748 -0.59547585 2.0900002
-1.155956 -0.59917974 2.1030002
-1.1522688 -0.59917974 2.1030002
-1.1485815 -0.59917974 2.1030002
-1.1448942 -0.59917974 2.1030002
-1.1482615 -0.6028837 2.1160002
-1.1445515 -0.6028837 2.1160002
-1.1408415 -0.6028837 2.1160002
-1.1371315 -0.6028837 2.1160002
-1.1334213 -0.6028837 2.1160002
-1.1297114 -0.6028837 2.1160002
-1.1260012 -0.6028837 2.1160002
-1.1291863 -0.60658759 2.1290002
-1.1254534 -0.60658759 2.1290002
-1.2207732 -0.6601519 2.3170002
-1.2251128 -0.66471058 2.3330002
-1.2210222 -0.66471058 2.3330002
-1.2169317 -0.66471058 2.3330002
-1.2128412 -0.66471058 2.3330002
-1.2170404 -0.66926926 2.3490002
-1.2211834 -0.67382789 2.365
-1.2252705 -0.67838657 2.381
-1.2298142 -0.6832301 2.398
-1.2342985 -0.68807375 2.4150002
-1.2300642 -0.68807375 2.4150002
-1.22583 -0.68807375 2.4150002
-1.2215955 -0.68807375 2.4150002
-1.2173613 -0.68807375 2.4150002
-1.213127 -0.68807375 2.4150002
-1.2174025 -0.69291735 2.4320002
-1.2131383 -0.69291735 2.4320002
-1.2088742 -0.69291735 2.4320002
-1.2135258 -0.69804579 2.45
-1.2176207 -0.70288938 2.467
-1.2221478 -0.70801795 2.4850001
-1.2177908 -0.70801795 2.4850001
-1.2134337 -0.70801795 2.4850001
-1.2178346 -0.71314639 2.503
-1.213446 -0.71314639 2.503
-1.2182353 -0.7185598 2.5220001
-1.2229578 -0.72397321 2.5410001
-1.2185028 -0.72397321 2.5410001
-1.2231253 -0.72938669 2.5600002
-1.2186369 -0.72938669 2.5600002
-1.2231596 -0.7348001 2.5790002
-1.2186378 -0.7348001 2.5790002
-1.2141159 -0.7348001 2.5790002
-1.209594 -0.7348001 2.5790002
-1.21395 -0.74021351 2.598
-1.2187051 -0.74591184 2.618
-1.2238539 -0.75189507 2.6390002
-1.2284669 -0.75759345 2.6590002
-1.2238048 -0.75759345 2.6590002
-1.228771 -0.76357663 2.6800001
-1.2336638 -0.76955992 2.7010002
-1.2389377 -0.77582806 2.723
-1.2341634 -0.77582806 2.723
-1.2293891 -0.77582806 2.723
-1.2246147 -0.77582806 2.723
-1.229248 -0.78181136 2.7440002
-1.2244368 -0.78181136 2.7440002
-1.2196257 -0.78181136 2.7440002
-1.224997 -0.78836447 2.7670002
-1.2298467 -0.79463255 2.789
-1.2350584 -0.80118567 2.812
-1.230128 -0.80118567 2.812
-1.2352189 -0.80773872 2.835
-1.2302482 -0.80773872 2.835
-1.2356503 -0.81457675 2.8590002
-1.2306374 -0.81457675 2.8590002
-1.2256248 -0.81457675 2.8590002
-1.2308584 -0.82141477 2.8830001
-1.2258035 -0.82141477 2.8830001
-1.2313344 -0.8285377 2.9080002
-1.2262359 -0.8285377 2.9080002
-1.2316351 -0.83566058 2.9330001
-1.2264925 -0.83566058 2.9330001
-1.2213501 -0.83566058 2.9330001
-1.2265741 -0.84278351 2.9580002
-1.2213879 -0.84278351 2.9580002
-1.2162014 -0.84278351 2.9580002
-1.2216595 -0.85019135 2.9840002
-1.2270266 -0.8575992 3.0100002
-1.2327082 -0.86529195 3.0370002
-1.2273834 -0.86529195 3.0370002
-1.232923 -0.87298465 3.0640001
-1.2387686 -0.88096237 3.0920002
-1.2333473 -0.88096237 3.0920002
-1.227926 -0.88096237 3.0920002
-1.2225046 -0.88096237 3.0920002
-1.2281047 -0.88894004 3.1200001
-1.2226343 -0.88894004 3.1200001
-1.2284774 -0.89720261 3.1490002
-1.2229562 -0.89720261 3.1490002
-1.2286465 -0.90546519 3.1780002
-1.2346202 -0.91401273 3.2080002
-1.2404886 -0.92256021 3.2380002
-1.2348113 -0.92256021 3.2380002
-1.2409015 -0.93139261 3.2690001
-1.2351698 -0.93139261 3.2690001
-1.2294382 -0.93139261 3.2690001
-1.2237065 -0.93139261 3.2690001
-1.2295251 -0.94022506 3.3000002
-1.223739 -0.94022506 3.3000002
-1.2301326 -0.94962728 3.3330002
-1.2242887 -0.94962728 3.3330002
-1.2301431 -0.95874465 3.3650002
-1.2366129 -0.96843177 3.3990002
-1.2306533 -0.96843177 3.3990002
-1.2246937 -0.96843177 3.3990002
-1.2187341 -0.96843177 3.3990002
-1.2249058 -0.97811884 3.4330001
-1.2188866 -0.97811884 3.4330001
-1.2128674 -0.97811884 3.4330001
-1.2191523 -0.98809105 3.4680002
-1.2130717 -0.98809105 3.4680002
-1.2191725 -0.99806315 3.5030003
-1.2254968 -1.0083201 3.5390003
-1.2192918 -1.0083201 3.5390003
-1.2257694 -1.018862 3.5760002
-1.2194995 -1.018862 3.5760002
-1.2393533 -1.0408006 3.6530001
-1.2329483 -1.0408006 3.6530001
-1.2396382 -1.0519123 3.6920002
-1.2331649 -1.0519123 3.6920002
-1.2266916 -1.0519123 3.6920002
-1.2334384 -1.063309 3.7320001
-1.226895 -1.063309 3.7320001
-1.2203515 -1.063309 3.7320001
-1.2274684 -1.0752755 3.7740002
-1.2344379 -1.087242 3.8160002
-1.2415818 -1.0994934 3.8590002
-1.2348157 -1.0994934 3.8590002
-1.2420517 -1.1120298 3.9030001
-1.2352084 -1.1120298 3.9030001
-1.2283651 -1.1120298 3.9030001
-1.2356055 -1.124851 3.9480002
-1.2286834 -1.124851 3.9480002
-1.2359966 -1.1379572 3.9940002
-1.2434561 -1.1513482 4.0410004
-1.2510568 -1.1650243 4.0890002
-1.2438874 -1.1650243 4.0890002
-1.2367181 -1.1650243 4.0890002
-1.2295487 -1.1650243 4.0890002
-1.2373265 -1.1792701 4.1390004
-1.2300694 -1.1792701 4.1390004
-1.2228124 -1.1792701 4.1390004
-1.2155554 -1.1792701 4.1390004
-1.2231866 -1.1938008 4.1900001
-1.2158402 -1.1938008 4.1900001
-1.2232033 -1.2083316 4.2410002
-1.2157674 -1.2083316 4.2410002
-1.223717 -1.223717 4.2950001
-1.2161865 -1.223717 4.2950001
-1.223852 -1.2391026 4.349
-1.2318876 -1.2550579 4.4050002
-1.2241641 -1.2550579 4.4050002
-1.2324575 -1.2715831 4.4630003
-1.2246324 -1.2715831 4.4630003
-1.2328931 -1.2883933 4.5220003
-1.2249646 -1.2883933 4.5220003
-1.2170361 -1.2883933 4.5220003
-1.2091074 -1.2883933 4.5220003
-1.2171167 -1.3054881 4.5820003
-1.209083 -1.3054881 4.5820003
-1.2010491 -1.3054881 4.5820003
-1.2094188 -1.3234379 4.6450005
-1.2012745 -1.3234379 4.6450005
-1.2093126 -1.3413877 4.7080002
-1.2178952 -1.3601922 4.7740002
-1.2095248 -1.3601922 4.7740002
-1.2182634 -1.3795664 4.842
-1.2097737 -1.3795664 4.842
-1.2184027 -1.3992257 4.9110003
-1.2275288 -1.4197397 4.9830003
-1.218792 -1.4197397 4.9830003
-1.2277822 -1.4405386 5.0560002
-1.2189173 -1.4405386 5.0560002
-1.2100525 -1.4405386 5.0560002
-1.2192435 -1.4621924 5.1320004
-1.2102455 -1.4621924 5.1320004
-1.2195047 -1.4844158 5.21
-1.2103698 -1.4844158 5.21
-1.2012349 -1.4844158 5.21
-1.2106338 -1.5074941 5.2910004
-1.2013569 -1.5074941 5.2910004
-1.19208 -1.5074941 5.2910004
-1.2013576 -1.5311421 5.3740001
-1.1919353 -1.5311421 5.3740001
-1.2014365 -1.555645 5.46
-1.1918634 -1.555645 5.46
-1.2013454 -1.5807177 5.5480003
-1.211378 -1.60693 5.6400003
-1.2014893 -1.60693 5.6400003
-1.2114604 -1.6337122 5.7340002
-1.2014067 -1.6337122 5.7340002
-1.1913531 -1.6337122 5.7340002
-1.2014892 -1.661634 5.8320003
-1.1912638 -1.661634 5.8320003
-1.2014918 -1.6904105 5.9330001
-1.2121687 -1.7203268 6.0380001
-1.2015821 -1.7203268 6.0380001
-1.2122985 -1.7510978 6.1460004
-1.2236136 -1.7832934 6.2590003
-1.2126395 -1.7832934 6.2590003
-1.2016654 -1.7832934 6.2590003
-1.1906914 -1.7832934 6.2590003
-1.1797172 -1.7832934 6.2590003
-1.1687431 -1.7832934 6.2590003
-1.157769 -1.7832934 6.2590003
-1.1467949 -1.7832934 6.2590003
-1.1153146 -1.7510978 6.1460004
-1.1045387 -1.7510978 6.1460004
-1.0937626 -1.7510978 6.1460004
-1.0829867 -1.7510978 6.1460004
-1.0722107 -1.7510978 6.1460004
-1.0614347 -1.7510978 6.1460004
-1.0506587 -1.7510978 6.1460004
